# 3D point list with one line of data per point:
#   POINT3D_ID, X, Y, Z, R, G, B, ERROR, TRACK[] as (IMAGE_ID, POINT2D_IDX)
# Number of points: 290, mean track length: 9.3415329391891895
27385 -1.9088457522980797 -1.0773563431633171 2.4970153261640342 47 76 73 1.2958795112547887 110 609 112 449 111 465
1544 -0.35592854480128472 5.0688263323763847 3.4778633298261616 149 150 145 1.7900135167589795 16 1247 19 1659 38 1616 36 1209 22 1368 17 1193 34 1172 32 1093 20 1381 23 1654 137 1448
22297 2.9974954605245578 -1.1815264701069725 2.2548930882735676 109 125 118 0.75104994646595757 131 79 98 530 109 337 87 529 76 503 64 615 53 734 120 172 197 1030 186 1156 175 1084 164 1179 153 1253
1543 -4.6398708493497871 5.5364376647032332 2.4736061617439313 111 118 112 1.4366125449247464 21 1568 19 1658 20 1327 22 1354 18 1389 23 1582
22296 2.6184938970778635 -1.1838493140763535 2.2766802124107182 136 145 140 1.6347811553219564 131 42 98 520 109 316 87 518 76 502 64 618 53 744 120 157 197 1051 42 795 186 1180 175 1107 164 1192 153 1277
11813 0.21748316930915837 3.2838537881365708 3.1362583567679567 160 159 129 1.8709142051122654 59 868 165 717 170 629 170 630 166 470 167 473 168 420 168 421
1540 -1.7083282458750191 5.3598220965461483 3.5817646820478597 152 150 163 1.1888725311469435 19 1652 38 1638 37 1416 18 1308 17 1245 33 1228 32 1164 3 1718 4 1636 2 1649 1 1740
22293 2.3800672771709253 -1.2361773674915399 2.2763869158683314 142 149 129 1.1008703663833255 131 7 98 500 109 289 87 499 76 484 64 614 53 736 120 132 197 1052 42 793 186 1187 175 1113 164 1197 153 1286
6627 2.731487680856624 -4.5648226197433743 1.1477422059084526 21 48 55 2.2624279289661602 10 227 9 252 6 188
27380 -0.30129355362305171 -1.6372547774082964 2.3122474751735753 132 125 115 1.319799346417905 110 593 112 335 111 378
11812 -0.079451873190300226 3.2612707923272581 3.0569850856459051 129 123 99 1.7577458609893617 165 710 62 503 170 616 166 454 167 447 168 389
1539 -4.585576660009222 5.5200901896654742 2.478613091712222 87 99 89 1.8148584316251222 21 1566 19 1651 38 1729 20 1326 22 1350 23 1583
22292 2.3066658553512491 -1.280452313461697 2.2726890418671584 101 97 72 0.99219255723192501 98 488 87 478 76 471 64 605 53 729 109 276 120 112 197 1041 42 789 186 1177 175 1106 164 1194 153 1283
6626 6.0298908502461863 -4.8326790447554648 0.68299055986791268 146 151 143 0.25236423211794934 10 226 9 244
27379 0.026694306798755185 -1.6872986718261356 2.3059591877547492 104 83 80 0.47501115827557916 112 308 111 370
11811 -0.071995774268794749 3.2364658802213842 3.0860363554426051 113 103 78 0.89461493679973514 165 698 168 386 166 441 169 365
1538 2.7367989133088435 4.2406012283773435 3.1895436965586135 23 37 36 0.69717033612768786 21 1518 19 1650 38 1522 37 1195 36 1055 35 1171 18 1227 17 1080 33 1033
1537 -5.1133416228365185 5.4814315269753129 2.1055669381984479 105 99 102 1.4905625019666993 21 1559 38 1743 20 1319 22 1342
6624 -6.9080421719651266 -3.9690772837194106 2.6946099346759129 44 42 50 2.9736334214703035 13 59 9 197
27377 -0.23519945336944476 -1.7120685706996808 2.3344935520452159 0 0 0 1.3115001395724977 110 577 113 150
11809 0.16205985160560865 3.216563440703192 3.1296262522345408 169 172 165 1.2632166993940175 163 897 165 686 170 598 167 442 168 393 161 419 159 258 160 246 157 338
1536 -5.209626584467359 5.4522120268128704 2.0338475340143178 110 106 107 2.5473459282414401 19 1642 38 1746 21 1556 22 1337
22289 -1.4253198953822552 -0.94229348089160236 2.5157980193270526 119 74 43 1.6068311524325691 81 282 98 273
6623 1.9812532679376529 -5.0181694284998661 1.4670664876059032 153 153 155 2.4303978353099973 26 184 9 164
27376 -0.31416005804339825 -1.7120069610755932 2.3065247010621497 0 0 0 0.45847355046724891 110 568 112 303
11808 -0.078205020239091788 3.1931419299548613 3.0611665399751256 104 93 71 1.772414315667078 163 913 165 677 162 433 165 676 166 426 161 423 161 426 159 262 160 250
1535 2.2889882809352602 4.3347753552885742 3.2312909968220906 74 59 52 0.84772054116493223 21 1517 19 1635 38 1530 37 1206 36 1080 35 1182 18 1226 17 1087 34 1060 32 923
22288 -1.370586168259448 -0.96562564771052173 2.5047336356944152 124 79 43 0.25121424810604887 81 265 98 267 87 527
11806 -0.52163468786936629 3.0962024193602291 3.0543306867297715 141 142 136 1.2562935826967774 163 879 171 798 162 416
1533 0.6031814096233854 4.7798565595774205 3.4649437521056212 164 163 168 1.747641143638148 16 1205 19 1629 37 1289 32 1034
22286 -0.79309625034333597 -1.2026408727046907 2.4347362211076589 109 83 66 1.3907207166093016 81 111 98 198 87 362 87 369 76 489 64 746 53 927 42 1030
6620 -0.17533729226592748 -5.2794847284348423 1.5559005953726652 111 133 114 0.44223115760158171 11 81 9 62
27373 -0.18487476997731733 -1.8848659730506587 2.2942315812756138 106 144 137 0.35523189818419437 112 234 111 290
11805 -0.42252767052218565 3.1354073732240586 3.1444132358802404 119 125 123 1.360613310500832 163 878 165 657 166 399
1532 -2.8967370900886982 5.5505705013565585 3.7153529683741673 152 59 60 0.85850208210048806 16 1371 19 1622 37 1445 36 1361 17 1275 34 1249 33 1269
6619 -1.8909489646041102 -6.0911052119271218 2.2305547321804688 0 0 0 2.3369557066191025 26 102 29 0
27372 0.50106574232678502 -1.8888546596136835 2.2445233984601041 0 0 0 0.31043646438647876 112 184 113 39
1531 3.0679163622998029 4.0615343465922678 3.1015600538239538 24 25 19 1.3137015697800412 21 1485 19 1617 38 1484 37 1150 35 1134 2 1175 4 1254
6618 0.24272526927888921 -6.5463829912727576 1.0235496282818688 40 34 22 0.66369441894452397 26 5 9 12 7 7
27371 0.0099968975459341965 -1.8952598176059656 2.2741544203600257 86 104 106 1.7515293669687086 110 540 111 287
1530 -0.5887317343710996 4.9915525162302998 3.4905529238297288 58 115 160 1.3172172960566693 16 1232 19 1613 37 1316 36 1194 22 1347 34 1151 33 1142 32 1082 3 1598 4 1531 1 1633 23 1628 137 1436 138 1488 139 1437 140 1569
22283 -0.60060959916454493 1.4850163241228362 2.8527722606922534 53 55 54 1.9256937708263744 150 132 131 694
6617 0.051178761600341405 -6.7712290381522715 0.73943565426201363 81 83 80 0.82369677780252437 27 3 9 2 7 0 8 0
11802 -0.54915308646597216 3.1240653230406981 3.1582104036289773 123 124 118 1.8914624703279617 162 407 162 408 166 390 167 396 161 393 169 329 159 234 160 222 160 221
1529 -2.3177216684160897 5.3744525549234217 3.6505549641231547 171 89 92 1.1627321441537919 16 1318 19 1612 37 1392 36 1309 18 1284 17 1234 22 1352 34 1215 33 1219 3 1756 23 1606 137 1527 138 1575 139 1538
22282 0.086441068189567663 1.6263500190181122 2.918494484960418 118 121 100 3.0821765179581222 142 356 131 671
6616 5.5126607050703189 -2.4162839169291193 1.8188523469570868 57 19 36 2.2074696421351776 26 813 29 379 11 913 8 473 11 897 12 498 12 495
27369 0.058997855109513331 -1.9385225905426595 2.2708152444184475 111 129 131 1.6556129573403717 110 530 113 83 111 262
1528 2.6033465318638616 4.1733328126558682 3.1790913067548252 135 127 116 0.84865101400920129 21 1491 19 1611 38 1492 37 1176 33 1017 22 1314 32 884 23 1663
22281 0.1865880770756734 1.7317785472316958 2.8887783128451896 115 115 108 1.696860694425155 142 395 131 712 59 251 60 211 61 176 58 293 63 58 163 221 171 227 71 178 172 232 179 255 132 172 130 132 56 542 180 424 55 771 73 454 78 856 173 202 176 206 109 1076 120 846
6615 -5.9973863253116626 -1.8042178911964857 2.5803102372478253 187 191 192 0.18659341045454259 14 335 9 798
27368 0.015743947397938527 -1.9609426426647261 2.2522545316741476 0 0 0 2.5015461818408813 110 515 112 198
11800 -0.56198066996613938 3.0926293094449631 3.1578421521696516 106 112 101 2.0282057150237591 163 862 165 639 168 323 161 386
1527 2.2825438346424751 4.221512744149952 3.1897940616168095 57 51 40 0.91718137286693413 16 1115 38 1497 37 1187 36 1048 35 1162 18 1202 17 1074 34 1046 33 1023 19 1597 32 897 134 455
22280 0.10967439690476841 0.93267596077583104 2.7553186217001269 149 143 121 1.8415361258035279 142 160 131 476 150 35 142 159 98 1205 109 915 150 37 87 1254 120 677
6614 -6.1473318791639651 0.88942721886358889 2.3582883636538572 126 94 60 2.4140555320779917 14 1119 13 1216 12 1011 11 1542 14 1128 13 1227
27367 -0.16119940558290949 -2.0862186590703828 2.248762832191562 124 121 112 0.58239888563409858 110 467 112 170 111 214
1526 2.4082598520474758 4.1766122615538501 3.1706035751443662 53 63 73 0.85140547640783837 21 1482 19 1595 38 1488 37 1175 36 1037 33 1016
22279 0.33040657128918061 2.945507075660236 3.0992994715365985 167 167 156 0.44801965911340441 150 510 131 951
6613 -2.6408230615742965 -4.4885116678979005 1.8286106495775971 161 163 168 2.0083889431296496 11 203 29 221 26 263 12 24 25 104 29 236 26 274 27 310 6 33 7 58 12 18
27366 0.62872876639312614 -2.0227710139113029 2.21401728160009 174 175 170 1.6782006854478031 110 552 112 113 111 207
1525 2.7364072522069121 4.0713332361153167 3.1440365683799727 29 38 38 1.4161349793077997 21 1472 19 1590 38 1473 37 1147 36 1003 35 1133 21 1466 17 1050 34 1022 33 979 33 990 38 1464
22278 0.10287779337219975 2.7017713252572082 3.0380679329622269 92 79 47 2.2405661812595516 151 306 131 924
6612 -2.8203535690296602 0.9122952078725145 2.8864107380317945 123 127 129 1.6638904805815347 28 1767 11 1577 12 1037 3 535 37 205 16 355 21 499 19 495 38 357 37 195 36 259 35 277 35 288 20 435 22 503 18 344 17 326 34 7 33 67 33 77 32 403 3 534 4 582 2 617 2 625 1 719 15 686 23 743 31 912 31 920 14 1132 24 1002 30 1362 25 1362 13 1231 29 1490 28 1776 11 1587 26 1308 10 1638 27 1535 12 1033 12 1041 6 1292 34 12
27365 -0.056799302585306202 -2.1152544194894953 2.2329525044943774 113 87 88 1.9093216373696755 113 38 111 192
1524 -2.8370415522186185 5.3771048455210568 3.6529085359932725 135 44 53 1.2073195388252418 16 1324 19 1588 37 1389 36 1311 18 1264 17 1231 34 1207 33 1215 32 1183
22277 6.8581773016041359 6.2078818588852105 3.3612530517501402 152 156 140 0.61018359504682207 142 654 131 905 120 938
6611 -0.17237074124683463 -2.6056637802157359 2.043532207613056 122 79 35 1.5609304121296677 14 147 30 270 13 422 29 584 10 728 12 412 14 143 30 268 7 498 8 394
11796 -0.51910720481948869 3.0541193449322188 3.1472327470753236 138 124 97 1.2481068184064792 165 622 168 301 169 301
1523 -0.47553619877698389 4.859064581949224 3.4602471798466876 61 88 71 1.6819130668999882 16 1213 19 1585 38 1554 37 1296 36 1174 35 1250 17 1159 34 1132 33 1127 3 1567 18 1238 4 1494 2 1518 2 1523 1 1605 137 1414 138 1463 138 1468 139 1416 140 1555
6610 0.1664176562611932 -2.5580832664292119 2.0442430114819645 91 82 74 2.1919971157634386 14 156 13 437 11 743 12 424 12 435 14 169 13 442 9 731 6 511 5 42 8 403
11795 -0.51527997071757203 3.0233469455109989 3.14617367672765 142 135 117 1.7747711834250512 163 834 165 602 166 336
1522 -2.9076996187950068 5.3512486667077992 3.6476747742163296 139 117 123 1.3513401293160368 16 1312 19 1579 21 1527 38 1592 38 1600 37 1377 36 1306 22 1321 22 1324 17 1222 34 1202 32 1177 23 1567
22275 2.4579104437188386 3.8131024648508132 3.1513350915291336 121 121 121 0.02674538450344216 131 888 120 951
6609 -2.5985470284620233 -4.6258557482718299 1.7989185580529332 162 165 173 2.222200313230128 11 165 26 235 10 99 12 2 11 170 26 243 29 189 10 110 27 272 9 111 9 115 6 22 6 23 6 26 7 43 7 45 7 49 8 36 8 39 8 40
27362 -0.052746913969329533 -2.5065883189554685 2.1781041851401617 137 139 125 0.75310947878326484 110 382 112 46 111 113
11794 -0.63038004814633852 2.998822520977078 3.140166658728226 162 163 167 0.056659286171918607 163 826 170 486
1521 -5.7111933231380911 5.3827740506055797 2.2739689195396253 140 140 148 0.42937637420766162 21 1508 19 1578
22274 7.1891709614216159 5.9558723170557535 3.2518284979954424 169 173 176 1.1439729754522934 142 633 131 864 109 1118 120 914
6608 -5.6519134958339254 1.2186577553250644 2.2710692207654088 75 75 84 2.0592587603157839 13 1297 14 1210 11 1630 12 1077 14 1206 13 1307
27361 -0.082100262442424521 -2.5863809687062109 2.1681749101326191 154 157 138 0.65958464725583399 108 593 112 20 111 96
11791 -0.41265299479414352 2.9339330766512024 3.1151859373582851 139 141 139 1.7236398975355292 163 796 165 548 162 328 168 242 161 297 170 452
1518 2.4040986886065321 4.1010830081849905 3.169746772876513 19 38 53 0.70127403812789579 21 1462 19 1570 35 1139
22271 2.9078934234167817 2.592050002378091 2.8944890045352074 119 130 53 0.46959353767867462 142 478 150 346 131 740 120 819 87 1298
6605 -2.0985533339430242 -4.6299587284330119 1.730567360342981 139 139 139 1.940390096756401 25 58 29 158 28 299 11 177 26 238 10 119 27 268 12 7 25 57 29 157 28 297 9 124 6 29 6 30 7 56 7 59 8 47
27358 -0.062397691389933778 -2.7422479209403017 2.133313857458782 117 118 113 0.6130592764835141 110 267 111 60
11788 -0.079484365052432213 2.8584104942234378 2.9961763669684069 115 99 73 2.0908652255060085 165 517 62 381 170 424 167 284 161 264 159 134 63 453 160 125 158 160
1515 3.360417866251777 3.8380661241607603 3.0916788496479084 58 61 58 1.1215502881447088 21 1437 19 1557 38 1428 37 1097 37 1103 36 940 35 1091 17 1007
22268 -0.17345798683651617 1.6476345698882828 2.8310663875897912 141 124 95 0.78217467194131518 151 115 131 716
6602 0.74462788658030565 2.7848455242729537 3.782361003032741 151 156 159 1.6211153098170181 14 1519 12 1323
27355 -0.26365646369256412 -3.0932595664794209 2.0962288858402967 180 181 176 1.3510748375299233 108 392 111 15
11786 -0.09725298992089465 2.8105144708023775 3.0229578044471825 126 114 90 1.6140748560158515 171 646 165 492 166 251 168 199 161 240 169 197 157 224 156 367
1513 0.39924335246387566 4.4812743051911053 3.3542685142755246 34 115 170 1.4918807060099826 16 1146 19 1539 37 1209 36 1107 35 1191 17 1092 34 1065 33 1060 32 991 137 1348 137 1345 138 1398 139 1358 139 1350 140 1487 141 1501 1 1498
22266 3.3705653573754044 2.399120207729077 2.8404848833191232 92 97 91 0.60266071744214778 142 448 131 667 98 1239 109 980 120 773
1512 -5.2958240718493617 5.1282346634739318 2.1138627777613235 139 140 145 1.9141481099939486 21 1475 19 1537 38 1611 22 1280
22265 3.3227598280850339 2.1309282951766328 2.8040696346645095 118 120 98 1.1933193062714531 142 412 131 621 98 1196
6599 0.83839016945771616 1.7173328243309778 2.8732567815762158 126 79 79 0.37194340300200535 31 941 12 1201
27352 0.174136621921022 1.5956917866805571 2.8638657201805091 110 93 60 1.6824730232621086 122 32 121 105 119 223 154 67 155 55 151 117 150 199 142 335 71 45 74 567 77 558 78 761 56 452 171 154 170 82 59 136 60 67 61 92 58 192 163 119 171 153 57 308 170 81 178 153 16 496 19 705 38 613 37 382 36 375 35 460 18 518 17 488 34 262 33 251 3 755 14 1309 13 1403 29 1560 137 807 138 830 139 810 143 1079 144 1258 145 1464 135 349 134 278 133 179 132 131 179 171 174 199 172 151 180 358 180 359 130 74 181 666 181 670 72 154 73 364 173 132 176 144 177 119 131 654 98 1327 109 1046 120 813 118 346 117 459
11784 -0.091714713160110053 2.7787007199482332 3.0018428077188353 107 91 75 1.5942825523748412 165 480 170 392 167 242 168 180 158 144 156 348 154 333 142 632
1511 0.87631310452678346 4.3440104642643629 3.3001649189187727 165 164 170 0.93215882185627408 21 1449 19 1529 38 1477 37 1191 33 1042 137 1302
22264 2.3282092823491713 1.8050136231838492 2.7972127243039329 105 92 58 0.68433951819218408 150 257 131 592 98 1206 109 962 87 1210 76 1202 120 750 131 591
6598 -5.0102325342670895 1.3952479697490232 1.2844746788914105 119 121 126 2.2771314029734975 11 1720 12 1151
27351 -1.2204974320817388 0.46499406680197347 2.7598372366297999 90 101 101 2.3908319809324259 115 549 117 186 118 94 119 12 117 192 118 96 116 398
11782 -0.11535624460825002 2.7594910398135628 3.0053655948455771 164 155 140 1.8242774214891269 163 709 171 622 165 462 166 219 167 230 167 231 165 469 168 165 161 215 161 216 162 269 169 175 169 178 159 107 159 106 160 100 172 479 176 366
1509 -5.2301069192988718 5.0409494242581454 2.1753138116089361 134 135 140 1.3342930947561811 21 1457 19 1511 38 1583 20 1232 22 1273 23 1533
22262 2.8420337449540805 1.82700934442128 2.7659283911497399 125 131 57 1.2075108787392919 142 358 131 584 98 1182 109 939 98 1179 76 1160 120 740
6596 -5.6248453146373718 1.4630898185497265 2.2583294262966644 91 95 95 2.2112184954869019 11 1695 14 1275 12 1122
27349 0.2464159514877933 1.5840566859450231 2.8596102975009861 157 160 155 1.8108372855732615 59 113 60 43 59 118 60 46 61 66 61 74 58 172 58 180 163 125 171 147 171 158 57 293 57 300 170 85 178 132 178 139 172 141 172 143 179 158 179 160 56 448 174 186 174 185 55 665 55 668 180 338 181 652 78 787 54 988 182 652 77 572 74 587 72 152 71 17 71 20 73 379 73 384 173 117 173 122 176 137 155 56 154 68 151 119 150 196 142 325 177 111 131 641 98 1316 109 1038 120 802 118 348 118 351 117 472 121 89 122 16 119 210
11781 0.42807852126859736 2.667334499306893 3.0317872050337855 96 102 76 0.71048887126215288 163 659 165 451
1508 -5.2808157332736627 5.0233015091284763 2.1002784220024973 134 135 137 1.579732047252711 21 1455 38 1578 22 1271 23 1531
6595 -5.5844281060250163 1.4481503064868086 2.3690360007678 105 103 101 0.44755528144030621 11 1686 12 1116
27348 0.2126922356177865 1.6703818797939729 2.8739486409932042 156 122 89 1.6836306625348776 59 193 60 130 61 134 58 238 60 133 61 137 163 180 171 192 57 359 130 106 170 114 178 200 172 191 132 155 56 500 55 728 78 833 77 605 74 622 72 204 72 207 71 121 73 429 71 125 118 385 122 78 121 144 119 266
1507 -5.7173183580022675 5.1141305404277579 2.2733840932885148 136 140 143 1.3831113229339027 21 1447 19 1508 20 1230 22 1263 23 1529
6594 5.7672740143007255 0.56391832039332435 2.3332225664957842 0 0 0 1.8653786048535681 11 1687 25 1758 29 1150 23 881
27347 -1.4953675850239698 0.48586177069213748 2.7646330923191544 50 63 37 1.6970970074128215 82 985 81 800 80 618 79 438 78 211 77 117 74 150 120 587 131 279 114 600 115 541 114 601 83 1081 116 393 117 208 115 542 117 212
11779 -0.55241800544334796 2.7497165011005382 3.0859632955552332 158 159 161 1.1532071595570477 162 268 167 189 161 207
1506 0.87875037727507943 4.2500407137616047 3.3056051915067162 165 164 170 1.109260709212301 16 1112 19 1506 38 1450 33 1015 32 930 137 1282 138 1336
22259 2.6942232318941191 1.7449009089272371 2.7640856503856215 127 131 94 1.4485368675596337 142 333 131 578 98 1170 109 931 87 1162 76 1157 64 1273 120 735
6593 3.2469013612014881 0.70141095514878726 2.5606357765062278 85 92 103 1.5528323210856037 15 581 31 585 12 1074
27346 -0.037634536564852723 -4.6165739428543189 1.8141467747434759 57 90 112 2.1980858914108454 44 59 43 299 195 38 41 382 40 459 40 460 39 490 44 64 43 305 204 460 204 466 198 308 198 310 203 481 203 488 196 171 199 343 199 344 200 452 202 528 201 493 201 499 91 198 91 199 90 64 102 290 105 93 99 319 107 53 41 388 199 349
1505 -6.0915662547754703 5.1535228715708685 2.2419334136345475 127 132 136 1.2576477682245633 21 1446 19 1500 20 1229 22 1261
6592 -5.6817533007224688 1.2013639011742012 2.4197968438335233 0 0 0 2.3697658130071413 11 1621 13 1300
27345 -0.40502792794641307 -4.4792032765001633 1.8489271922741757 92 104 112 1.785558098473681 45 70 44 132 43 390 41 477 45 65 43 389 40 567 40 568 39 606 39 610 204 565 203 581 203 582 199 485 199 488 200 650 201 674 92 450 95 402 95 405 93 241 91 315 94 271 89 158 96 641 90 159 90 163 102 337 75 370 97 467 103 264 105 209 107 148 99 335 104 267 106 245 175 71 164 120 153 206
11777 -0.086798585230076095 2.6163281992067309 2.9956091548231671 149 134 111 1.3332682099699336 163 632 171 543 165 385 170 324 162 204 166 166 167 166 168 113 168 114 161 152 169 136 159 67 160 70 158 88 157 162 156 271 155 235 154 283 151 292 150 460 142 598 131 934
1504 2.4791223816769725 3.8580427173780785 3.1594806429109381 22 26 25 1.2043769305074037 21 1392 19 1497 37 1083 20 1240 22 1251 33 925 32 810
6591 5.8428957014567624 0.45685616863245859 2.2766128900881788 72 18 14 2.0643730778634124 15 442 25 1723 12 1068
27344 -0.34593024742912648 -5.1908068275404142 1.727968719735272 140 155 127 1.1912085808934103 43 202 41 291 40 364 39 387 204 340 198 147 203 357 199 230 200 348 202 399 201 376 92 196 95 285 91 98 94 169 96 426 102 217 75 115 153 48 101 237 100 277 103 130 99 239 91 97 94 168
11776 0.47377242624518262 2.5007350175054692 3.0191516975913166 117 126 83 0.24978546613030567 171 477 165 369
1503 1.9142765674775515 3.9356664719931524 3.0424902631184412 20 20 18 1.2485840145848541 21 1395 38 1406 37 1107 20 1239 33 950
22256 2.737064350219764 1.6905100090878802 2.7518432216562307 140 145 48 0.62140666846560677 142 314 131 569 98 1158 109 919 87 1153 76 1145 64 1258 120 723
6590 0.70705172431337726 0.6602138473102338 2.6818149597271463 0 0 0 0.58924465924599523 15 608 26 1378 31 728
27343 -0.50792324832893476 -4.5801941851066923 1.8280653414822705 134 137 132 1.2814728421596413 45 0 44 70 43 313 41 398 40 481 39 517 204 483 203 502 201 568 92 370 95 356 93 185 91 243 94 221 89 93 96 576 90 119 102 295 75 281 97 425 101 307 100 366 103 201 99 303 175 25 164 73 153 161
11775 -0.4659074181693893 2.6420443223764996 3.0642075949744667 126 112 111 1.4450476935500705 171 571 165 367 167 147 166 153 168 90 161 160 159 75 158 100 157 175
1502 -6.5468202010729311 5.2027713616754685 2.280283135292986 132 111 120 1.8166922438556059 21 1444 19 1495 20 1228 21 1445 22 1257 22 1258 19 1494
22255 3.313600830647681 1.7508148042752159 2.7387777085633913 103 111 88 1.0776165886580056 142 321 131 566 98 1127 109 901 87 1129 76 1098 64 1209 120 715
6589 0.917418500231166 0.45750090924102832 2.6243616346397709 0 0 0 1.0608968624639894 15 543 31 652 5 625
27342 -0.055180249194096198 -3.4283559064858453 2.0227152764930736 120 125 122 1.5126574894385962 47 172 192 153 46 252 193 222 45 596 194 499 194 500 192 148 44 644 43 966 195 751 41 1013 40 1160 39 1220 198 1010 196 877 86 162 89 642 88 443 90 580 106 736 108 267 106 739 104 782 105 646 107 594 110 115
11774 -0.043388598413195596 2.5545099340750665 2.9644286989017314 121 107 80 1.682752789816526 163 590 171 512 165 349 170 296 162 180 166 146 167 142 168 88 167 144 161 122 169 115 159 53 160 56 162 179 158 68 157 145
1501 -6.2807925688143094 5.1419163882321595 2.2418427155260843 134 139 142 0.9325304767602498 21 1442 19 1493 22 1255
22254 2.8664882146639159 1.6536369952020142 2.7247096615223829 102 108 70 1.5103774730835604 142 296 131 561 98 1137 109 906 131 564 87 1144 76 1119 64 1227 120 713
6588 5.5652184992102782 -0.10152673283949837 2.1526970597021484 0 0 0 2.568169476531684 15 319 31 188 5 592
27341 0.43055434097082862 -3.3380585234162008 2.008550744065452 83 83 72 1.6740002063009178 106 872 105 785 108 256 106 875 47 216 191 30 46 297 193 276 45 648 194 546 44 693 43 1013 195 752 41 1061 196 854 90 675 89 738
11773 -0.45578959367790101 2.5866880736091566 3.0584634800176516 135 139 138 0.86768233778230353 163 598 165 339 166 136 167 126 168 69 159 59 156 243
1500 2.9326165938786106 3.7687921770448805 3.2280379898527647 65 65 70 2.4065795476209537 19 1492 38 1384 35 1063 22 1247 22 1244 33 902 23 1591
22253 2.0934741189086776 1.5018715675348309 2.7565833144188505 95 97 93 0.77300204532509298 150 203 131 552 98 1164 109 916 120 714
6587 -1.7233369019388722 0.25578340028647945 2.7209194558243412 49 29 8 1.6633246467116474 15 522 31 758 29 1300 7 1212 4 428 6 1129
27340 -1.9326285047218725 -2.4205515517852172 2.2792893890495818 103 104 105 1.8458823210637891 105 891 106 1004 107 829 108 568 110 411 110 416 112 186 114 53 113 116 111 184 111 185 110 420
11772 -0.098180742185623449 2.5338541798145378 2.9439877134720609 158 141 115 2.0135701735618055 163 573 162 174 171 503 167 124 161 114 163 574 159 47 170 279 160 50 160 51
1499 -6.645522989359212 5.2121453786545802 2.276185038561791 133 127 130 1.7451261414108585 21 1443 19 1490 20 1226 22 1256
22252 3.3403255227095556 1.6523000614030638 2.7066042743860046 116 120 105 0.57296181993044282 142 293 131 551 98 1108 109 884 87 1109 76 1075 64 1189 53 1322 120 701
6586 5.5151588192129122 -0.2559204387153084 2.0212891757117086 47 68 32 0.39844041456435503 14 803 26 1385 12 932
27339 -1.4156366710724702 -3.1306837322388605 2.1327340194784794 122 96 69 1.8818188678246688 106 797 105 698 106 801 104 745 107 666 110 221 85 72 91 894 93 673 88 528 92 1076 108 406
1498 0.16158288069746604 4.3406884800599741 3.3342578178537581 112 87 91 1.2986380374662916 16 1126 19 1489 37 1182 36 1082 18 1153 17 1072 34 1043 33 1036 137 1325 138 1376 139 1337 140 1467 141 1484
22251 2.6763658272039152 1.5505861187256269 2.7276013604988583 100 101 35 0.98566755934994155 142 281 131 548 98 1126 109 893 87 1141 76 1112 64 1229 120 706
1497 -5.3659492030844413 4.9512129192845462 2.1845460121354821 77 79 76 2.212197267530001 21 1436 19 1485 38 1552 20 1219 22 1249 18 1228 23 1523
22250 2.7210326344442257 1.5091253627833567 2.7231015589092089 127 132 46 0.5398635678171041 142 274 131 543 98 1117 109 887 87 1128 76 1103 64 1217 120 697
6584 -6.4060119129748045 0.39682318597894622 2.4621930802024079 137 141 144 0.49456702020183163 11 1380 12 908
27337 0.34400911408421958 -0.075372224543192298 2.5705212250027638 140 130 126 1.604161451105955 55 146 181 192 54 435 52 662 184 567 185 625 51 843 183 453 50 961 187 811 49 1191 188 1036 182 264 81 887 80 610 114 641 115 467 114 638 116 240 80 604 81 883 115 466 79 254
11769 -0.47795710751720194 2.5661796694559529 3.04842700705654 158 159 161 1.6845291308536421 163 582 165 321 167 117 161 120
1496 -6.0239365505548381 5.0648015051849313 2.2752425106038525 107 118 114 0.68471157755349532 21 1434 19 1484 22 1246
22249 2.8584524262332223 1.4943570627228693 2.7058380310630383 121 134 54 0.73914453658529577 142 267 131 541 98 1105 109 876 87 1111 76 1086 64 1204 120 693
6583 1.1807896113006051 -0.31367682653544643 2.4686348570094423 121 126 132 1.4601751147010356 31 434 12 865 15 359
27336 -0.23740735593583606 -3.6257252190223106 1.9956374924545461 118 124 105 1.1477528475042669 197 232 42 45 186 399 47 3 46 87 193 58 45 438 194 337 44 505 43 810 195 591 41 866 40 1001 39 1059 204 992 198 888 203 1000 196 744 199 893 86 43 92 980 93 592 91 812 89 518 88 312 90 453 175 499 164 602 153 720 75 848 106 570 107 426 108 192 94 619 103 685 104 655 105 499
1495 -6.3039967125077307 5.0587874614443775 2.262961827797616 121 122 124 1.8750978348989331 21 1429 19 1480 22 1240
22248 2.4791456736806166 1.4028272978271175 2.7152610651673688 117 124 70 1.0604155378613764 142 250 131 535 109 875 142 248 87 1125 76 1100 64 1218 120 688 120 689
6582 -1.3906914900505667 -0.31100074464169719 2.2796258813579455 0 0 0 0.0082226871952959645 26 1091 29 1115
27335 -1.1036398852120335 -0.46410157620081222 2.5752096402805291 159 165 158 1.5806778552545022 115 296 116 174 113 516 114 388 115 298 116 175
11765 -0.048280833920163906 2.4025971413204354 2.9409375305539158 144 145 131 1.2774597393914833 163 483 171 447 165 272 170 251 162 135 166 112 167 95 168 53 161 77 169 83 159 16 160 30 158 48
1492 -5.8567769693537661 4.9775499382187194 2.3075379877432178 98 99 97 1.7902025535488311 21 1414 20 1209 22 1234 23 1515 19 1474
22245 2.5690108126135089 1.3521951533809613 2.7123377505098838 146 151 93 0.58197288412271175 142 242 131 526 98 1097 109 868 87 1105 76 1079 64 1203 120 680
6579 0.49376503221153623 -0.71216977224436084 2.3488121703632019 0 0 0 1.0971150327305592 15 248 31 365
27332 -5.4593801384055602 0.079322945911041193 2.7136088371669254 67 69 59 1.7601290964411094 118 122 117 174 116 316 114 399 115 384 116 318 112 560 113 453 114 396 115 382 111 499 111 501
11764 -0.061477775760145625 2.4063295291454994 2.951185094508296 158 141 115 2.5191273181042182 163 487 170 254 162 139 166 114 168 55 161 78 160 32 165 271
1491 -6.2042615859033461 5.0080825567058893 2.2765347465336929 97 102 98 1.5556001885009021 21 1413 19 1471 22 1233
22244 -1.1744616946047455 0.99177078489380199 2.8156231657548929 100 101 95 1.3558164288504044 142 140 131 522 109 1054 120 762 142 142
1490 -5.2763993188291991 4.8278865515125986 2.2072398178773986 125 125 127 1.5032379172613357 21 1400 19 1466 38 1528 20 1205 22 1231 18 1197 23 1514
22243 0.1667972649106661 1.1036427584952258 2.788439369670185 130 121 106 0.87558800866126785 142 192 131 520 120 711
6577 3.005591356425088 -1.2944646345736563 2.0993445757711058 0 0 0 1.2717463816260235 15 47 31 69
27330 -1.5539101299547686 0.90915983192612282 2.84383753391602 73 78 76 1.6767106109951981 119 78 118 170 78 396 80 757 79 543 78 397 81 898 80 755 79 542 77 286 77 287 74 300 74 301 114 688 117 272 115 611 116 474 116 475 118 173
11760 0.045895484587656604 2.2057776451243245 2.9737583983176972 145 145 143 1.8756903576859041 163 421 166 95 58 465 170 231 160 11
1487 -5.2952697192334197 4.6692525804237484 1.7958820962389708 62 66 63 1.0145797221165758 21 1382 19 1459 20 1193
22240 3.0547904219181863 1.3380526676040421 2.6740246497941453 99 110 62 1.1426195946797859 142 240 131 516 98 1071 109 841 87 1068 76 1050 64 1152 53 1293 120 670
6574 0.082402874415337266 -1.433174303072132 2.2518099492472219 0 0 0 1.5954344348776439 15 64 31 198
27327 0.021349195491678661 1.8669084448901452 2.9139350657555152 128 137 132 1.7641789638195737 65 60 59 341 60 311 61 247 58 375 63 165 163 299 171 290 165 83 62 117 57 485 130 173 170 166 178 365 162 24 172 286 132 214 179 321 71 247 56 608 174 331 180 481 55 839 181 798 180 478 78 862 74 647 72 314 73 478 77 621 173 249 176 249 155 106 154 128 151 166 150 270 142 442 177 226 131 758 154 124 155 107 120 873 118 442 123 17 122 184 121 234 119 366 123 18 122 183 152 88
11758 -0.078213728712653474 2.2162577854595051 2.9378258917446431 159 151 132 1.5639904508646838 163 416 165 211 162 87 161 45 171 378 158 30
1485 -5.9193765034596861 4.8505414113115197 2.3128275527573359 58 59 61 1.9529484627412392 21 1383 19 1453 20 1198 22 1217 20 1189 23 1505
22238 2.9190518981748879 1.2993414295305989 2.6870031130720196 92 96 45 0.62234712045078089 98 1072 109 840 87 1067 76 1051 64 1158 53 1299 131 511 120 667
6572 0.67626864043234491 -1.5444593832221376 2.1820620937177422 0 0 0 0.62705619928380962 15 34 31 146
27325 -0.034567540658576493 1.61713516264354 2.8798957654199677 128 127 109 1.7480825940692368 71 90 77 514 73 332 59 165 60 96 61 111 58 209 163 105 171 143 62 16 57 326 130 97 170 69 172 175 178 211 179 223 56 474 55 694 78 695 74 523 72 159 118 335 117 431 122 75 121 125 119 228
1484 -6.6278282706273979 4.9813698053321227 2.3659070706663718 123 107 31 2.2857228280479505 21 1389 19 1452 22 1222
22237 0.86353714240457724 1.1100564293909294 2.7539531658477294 137 132 126 0.46241136941453365 98 1184 109 908 87 1207 76 1217
1483 -5.2754824651567054 4.711794452686016 2.2077885949614875 126 117 125 1.6779418542832893 21 1379 19 1450 38 1489 20 1194 22 1214 18 1170 23 1506
22236 0.15446885220934248 1.0551161128948832 2.7766249611857861 121 119 102 1.7299606051528325 142 180 150 67 131 505 98 1236 109 946 87 1283 120 699
11755 -0.08845110272561546 2.1410599770011678 2.9688788751639192 124 123 119 0.98700987532372864 163 384 171 358 165 175 170 214 162 73 167 61 168 21 161 23
1482 -6.0865986007794204 4.7949242958489009 2.098991797783226 83 81 50 2.0905121074420419 21 1374 19 1448 20 1187 22 1211
22235 0.26477423879706002 1.0925534287529453 2.7686109893111985 155 157 154 2.3962223546387524 142 191 98 1237 109 944
1478 -4.6721542839761625 4.5759281626033754 2.4299278159078139 115 112 103 1.9983597631015559 19 1442 38 1443 37 1258
22231 3.0382583008883506 1.2091415273272763 2.6526125439250361 120 131 63 0.74004333136017297 142 225 131 498 98 1046 109 822 120 652
1477 -6.8325980316488257 4.859817403730017 2.2730898025093946 107 109 114 1.1081480631991953 21 1368 19 1441 22 1204
22230 2.6966361524509095 1.185031145744414 2.6749898034227022 116 130 67 1.5402450107667203 142 222 131 497 98 1060 109 825 87 1058 76 1049 87 1057 64 1155 120 655
6564 -1.6869156492935018 -3.1403910417134213 1.7556929307339755 0 0 0 0.98238353074656537 24 67 25 427
27317 -8.0342627400603774 -4.4646777981075969 2.218936465281494 0 0 0 2.1897506483460356 100 335 112 138
11749 -0.056466583528571646 1.9625706778263683 2.8642835116306409 170 164 150 1.2881039178270424 163 311 171 295 165 99 167 0 172 301
1476 -5.2946016336869315 4.626158028666266 2.2191921262262095 137 130 138 1.5383888561765526 21 1363 19 1440 38 1452 20 1184 22 1203 18 1156 23 1496
22229 2.9213215141132287 1.1428719482635581 2.6508363085426305 133 134 58 0.72135315435317249 142 220 131 490 98 1036 109 814 87 1042 76 1024 64 1132 53 1275 120 645
6563 5.1279139857269485 -3.3477438699028861 1.2183178465997684 0 0 0 1.4877040649976392 25 418 26 550
11747 0.22763510950771099 1.8232889566597417 2.8947143447138415 109 140 129 0.4703013368913429 163 289 165 88
1474 -6.007515568851999 4.6826220247223622 2.1244007336904049 89 92 97 2.1998632323318654 21 1357 19 1437 20 1176 22 1194 22 1198
22227 2.7358215639296528 1.1027143599295941 2.6633304642723341 101 100 79 0.43936715868188281 142 215 131 486 98 1038 109 813 87 1045 120 644
11746 -0.071967941950455708 1.9310214706768725 2.8649528965032807 156 148 125 0.74069872193111364 60 316 163 304 165 82
1473 -5.9790528995985648 4.7188106045650429 2.2790348112222758 87 92 95 1.9991589943280605 21 1362 19 1435 20 1181 22 1199 20 1178 21 1358 23 1486
22226 2.7731699211625442 1.0540322408579881 2.6486632473852683 116 104 82 0.89187733523019952 131 480 98 1022 109 805 87 1028 76 1017 64 1126 53 1271 120 638 142 210
6560 6.4814865397253776 -4.1019937972150862 1.5334107628822824 0 0 0 1.1927043118217751 25 282 26 454
27313 0.34007284578196167 1.533728236678924 2.8399990355477027 116 114 104 1.7452860782619906 34 243 137 778 35 437 138 803 139 782 140 925 141 938 143 1063 144 1239 134 258 133 160 132 109 130 33 177 88 59 73 61 19 58 126 171 119 57 250 178 106 56 403 180 318 55 628 181 634 78 804 54 958 182 634 77 585 74 597 74 603 77 581 78 797 73 373 73 376 72 120 72 118 171 118 173 96 118 339 118 340 117 475 117 479 121 59 119 177
1472 -6.6246295863518645 4.7645150462137194 2.2106820012600594 113 119 122 1.4342803487903997 21 1356 19 1433 20 1175 22 1192
22225 2.9118426679666105 1.0538029026215823 2.6318764616498549 129 144 53 0.82773337960722893 142 212 131 478 98 1015 109 795 98 1014 87 1015 76 1009 64 1112 53 1265 120 632
6559 2.7101424591597532 -3.8850526234571334 1.6262754405985984 0 0 0 0.8682478522746031 13 98 29 120 25 301
27312 -0.32226754282597325 -5.4569314351439449 1.684432745215467 125 156 160 1.670516878752859 43 30 41 122 40 187 39 194 204 166 203 190 199 67 200 176 202 229 201 223 95 134 41 125 40 188 39 195 204 167 203 191 202 231 92 65 92 58 93 46 91 12 96 267 96 269 101 167 100 187 103 96 99 147 102 155 100 184 103 94
11744 0.27010025411540417 1.7033543683493932 2.8721412939440776 162 164 161 2.336690968027531 60 158 171 212 165 16
1471 -5.3739931183687224 4.5311819732354612 2.1917436182289061 139 133 139 1.4010013174987381 21 1349 19 1431 38 1429 22 1188 18 1129
22224 2.492187603535212 1.0386184027164231 2.6477595884203469 127 139 77 0.40130175761518538 142 208 131 477 120 640
6558 3.0538652653985001 -4.3565953885031679 1.5466317604052711 47 53 79 2.2656587559345369 11 387 29 21 12 114 9 385
27311 0.38952458837333143 1.5737303003296508 2.8414732985240017 44 55 57 1.9438522801055029 59 98 60 23 61 47 58 154 171 159 57 285 130 53 178 115 172 131 56 438 180 322 55 655 181 638 78 846 54 983 182 636 59 99 60 24 61 48 58 155 57 286 78 848 73 425 77 613 74 633 74 634 173 112 177 94 118 367 121 78 119 211
1469 -5.8110165537234888 4.6068611978375014 2.297402539014588 96 95 101 1.1723140998881134 21 1346 19 1428 22 1183 23 1471
22222 0.27820752974776536 0.91994593317082018 2.7867284297413448 156 142 129 0.42459908496930243 131 471 87 1221
1468 -4.8619862716196094 4.4146385060567352 2.2479561835512603 114 115 109 2.3064356402149477 21 1334 19 1425 22 1171
22221 2.7394421343066808 1.0022430770172508 2.6364268237288697 108 121 49 0.47752470754454651 142 203 131 469 98 1010 109 789 87 1014 76 1010 64 1118 120 626
11739 -0.74446114033553357 3.0616207835910898 3.1465092200592264 161 162 167 1.4884678530244035 16 850 21 1106 19 1171 38 1127 37 852 36 778 35 896 20 993 20 997 22 1000 18 920 17 825 34 745 33 721 32 714 15 1021 23 1343 31 1177 31 1185 24 1577 30 1712 25 2013 137 1089 138 1124 140 1238 139 1092 141 1242 143 1395 136 567 135 477 134 391 133 337 132 348 130 391 130 384 128 266 66 429 67 379 68 367 69 328 65 330 59 804 60 751 61 636 58 803 63 471 128 264 66 424 68 365 69 326 62 420 178 750 70 351 70 355 159 217 161 375 158 237 157 332 157 333 168 265 157 322 179 624 71 494 72 490 71 491 127 192 176 433 178 749 177 409
1466 -6.1417310355924277 4.6229203905146834 2.2727096319142372 71 74 79 1.7173416057757507 21 1343 19 1422 20 1162 22 1181 23 1463
22219 2.7969060266097419 0.95011294914119715 2.6212409242603556 107 114 83 0.87551295104424887 142 197 131 462 98 993 109 772 87 1003 76 998 64 1098 53 1254 120 614
6553 0.64195347829105709 -3.603289902787902 0.44946632138109643 126 94 66 0.61857664433164838 11 300 12 65
27306 0.20823072247589133 1.6074925180483184 2.8655413437083075 106 106 88 1.0708504075484033 59 151 60 76 61 101 58 199 163 133 163 138 171 166 57 320 170 90 56 469 74 586 77 571 78 786 72 168 73 388 71 49 117 476 118 357 121 110 119 231
1465 -6.2227087159448091 4.6029350487654446 2.2179864482850182 51 59 58 0.78287066310556186 21 1339 19 1420 22 1178
22218 2.4583612055707498 0.89245134532577863 2.637521578465515 104 107 96 1.1920136822079428 142 187 131 457 98 1001 109 771 142 183 87 1008 76 1008 64 1121 53 1270 120 608 120 609
1464 -6.7638166637618742 4.6926525038475555 2.2356162861480655 113 116 118 1.6125941483299631 21 1345 19 1419 22 1180
22217 2.505999821488833 0.85793367395277498 2.6329331134008238 108 114 101 1.4359424516508252 142 181 131 456 98 988 109 764 87 1000 76 999 64 1105
11736 0.07798444645683604 3.1840564656242036 3.4493467429896079 136 117 86 3.6338960303829229 163 839 171 711
1463 -6.520938225090168 4.6587972503455539 2.3145452808058247 95 100 100 2.1974735666602601 21 1342 19 1417 20 1161 22 1176
22216 2.8079773886310728 0.85894302036754677 2.6009920982009946 112 133 74 1.8132426212783106 142 184 131 455 98 970 64 1081 53 1238
6550 -0.28237417627504552 -4.5911339993748719 1.5657269777360197 0 0 0 0.24020961101557459 25 61 26 248
11735 -0.58285602471467179 2.369909392210181 2.8569387650242155 183 183 183 1.6689885360475987 163 447 171 443
1462 -2.1339876471742838 4.2016883819033488 3.4262575815576031 73 72 78 1.0339777451713921 16 1093 19 1413 38 1367 37 1117 36 1049 34 993 33 980 32 975 3 1493 4 1422 2 1453 1 1535 15 1216 23 1508 14 1785 137 1370 138 1417 139 1376 140 1519 141 1522
22215 2.512483730542213 0.82671795324536734 2.6177077464563645 110 122 56 0.67482633779753509 142 179 109 749 131 454 120 598
6549 0.97174019258418687 -2.63165812433959 2.0040975417396982 47 82 100 1.8378165597640541 14 139 26 646 10 752 27 714 25 603 14 130 30 193 13 419 10 743 12 425 8 410
27302 0.034444099249977891 1.5617652486965548 2.8702324413792519 90 75 53 1.6225593236992708 59 107 60 36 61 57 58 150 171 109 57 277 170 52 178 150 172 137 179 173 56 425 55 647 54 981 74 515 78 691 77 509 72 121 71 23 73 311 73 317 118 311 118 313 122 33 121 97 119 198
1461 -5.3420528624654038 4.4364172524540413 2.2446606524797375 123 112 121 1.3785138617555519 21 1324 19 1412 38 1395 20 1154 22 1170 18 1114 23 1460
22214 0.75995375343877036 0.78905113233944013 2.7007552768199843 152 161 130 1.2768946047397591 150 40 131 450 98 1094 109 827 87 1138
6548 2.1998961057744522 -0.46088325840920707 2.3671233367661713 95 96 95 0.99687202121216056 29 976 30 744 27 1319 3 226 16 45 4 274 30 742 1 354
27301 0.022835698023051843 1.6948215570954157 2.8904207668685342 155 124 93 1.3129931701461424 122 114 121 172 119 268 59 219 60 170 61 157 58 259 63 37 163 168 171 194 62 58 170 99 172 218 179 263 56 515 180 441 55 748 78 758 74 568 72 201 73 391 71 147 151 133 150 227 118 370
11732 -0.20672667001086489 2.6984805464823651 3.0684762277606903 116 122 121 1.5330780948901694 59 666 60 610 61 511 58 678 63 388 163 676 171 591 60 614 63 389 163 678 62 322 57 759 57 763 178 578 162 240 162 242 167 202 167 207 161 194 161 196 169 161 160 94 158 116 157 196 179 495 174 491 180 642 173 398 154 310
1459 0.0040475210871005049 3.813447573528113 3.2786833387145675 143 144 148 1.5883497521787555 21 1305 19 1408 38 1339 36 945 35 1057 20 1163 17 960 34 940 33 904 32 848 2 1229 137 1232 138 1282 139 1243 140 1378
22212 0.82488758434238174 0.75523625179121923 2.6937793941651367 150 161 132 1.1289838878314031 150 33 131 444 98 1080 109 818 87 1117 64 1277 120 612
1458 -6.0584908303111886 4.5212269916647685 2.3401359367515524 84 89 93 1.5954328837780003 21 1322 19 1406 22 1165 23 1443
22211 2.4632067711705954 0.73540629773364585 2.6052056679561009 119 123 124 1.2143655543044116 142 168 131 441 98 956 109 731 87 976 76 978 64 1083 53 1243 120 588 42 1229
6545 -1.9837521080400009 -0.61806089318289226 2.5459885340692394 146 98 58 1.3685404731144661 4 40 2 93 1 184 14 679 13 856 11 1199 10 1212 27 1167 30 911 31 531 29 1067 28 1327 9 1183 6 887 7 971 5 309
27298 0.17186538860137407 1.7836257541066907 2.8947372135859788 78 104 93 1.7640676763612373 65 25 59 301 60 261 61 210 60 266 63 115 163 256 163 258 162 7 162 8 71 211 72 295 78 877 74 657 77 632 73 474 73 477 118 439 121 208 119 333
1457 -6.103753945634999 4.5124661494647356 2.274905808114152 94 95 100 1.3350813849627263 21 1321 19 1405 22 1163 23 1441
6544 -1.0355462127824553 -2.8251096104786582 2.0636440934405047 66 67 72 1.5480156134705909 14 74 13 343 28 752 11 693 25 524 10 682 9 668 6 456 7 460 8 367 8 369 6 448
27297 -0.41326690652672604 -4.5732467181510641 1.8267045044390737 98 101 83 2.1189931152559227 89 86 107 105 93 186 96 585 97 429
1456 -6.8470512874112543 4.6237752371457912 2.3038197668445211 112 81 89 0.91243107747848418 21 1327 19 1404 22 1164
22209 -0.44048204970273491 0.74000492312329669 2.7386876357347441 91 88 79 0.50487729784169411 142 118 131 434 98 1216 109 903 87 1278 120 647
6543 5.8420323201915991 -2.913516974433457 1.6179071473259325 61 70 71 1.5431498731954507 11 787 10 809 27 704 25 608 29 197 13 348 28 646 26 675 6 570 9 751 7 543
27296 0.21559961665270438 1.7136638096983117 2.8811837628480985 112 98 79 1.5154556451282484 60 177 63 33 71 152 72 239 73 450 59 232 60 186 61 167 58 279 63 38 163 212 171 213 165 15 57 394 170 129 178 241 130 125 172 220 179 237 56 532 174 257 180 403 55 762 181 715 78 854 77 618 74 641 72 242 71 156 73 455 173 185 176 191 118 405 122 101 121 167 119 287
11727 0.50112827088251666 3.3663373606933447 3.0850336322741305 107 90 81 0.35121908850359007 163 965 171 818
1454 -5.4884009926571915 4.4011908218231675 2.1831080202547142 101 73 85 1.3160019005392092 21 1317 19 1401 38 1389 20 1149 22 1162 18 1113 38 1385 23 1446
6541 1.9547246176318669 -3.8081847917453677 1.7134014681696728 118 117 127 1.8833097903848051 25 322 13 137 29 184 28 510 11 527 13 123 29 173 28 492 26 439 26 452 25 336 10 492 10 506 27 489 27 497 12 227 9 499 6 339 6 351 7 344 7 350
27294 -0.30648484079210414 1.5304686774225966 2.871933625250092 115 120 102 1.2028297991022141 16 486 21 662 19 677 38 586 37 356 36 359 35 438 18 498 17 472 34 235 33 229 3 731 4 745 2 735 1 850 14 1296 30 1404 13 1391 29 1554 28 1943 11 1765 137 802 138 821 139 802 140 943 141 958 143 1081 144 1259 145 1461 134 269 132 123 130 68 130 72 177 143 71 36 74 462 172 130
1453 -0.51798862433496606 3.8520896399570477 3.2722531119987757 78 124 157 0.85443898206805102 16 1022 19 1395 38 1335 37 1050 36 958 17 962 34 945 3 1331 1 1387 137 1258 138 1306 139 1270 140 1407 141 1428
22206 1.9484441363885203 0.60965880876271294 2.6092837653704057 156 158 157 1.2641601313580018 142 154 131 421 98 951 109 717 87 983 76 985 76 987 87 979 64 1095 64 1100 53 1261 53 1264 120 554
6540 -1.1023142615564159 0.39086078679982561 2.2779644504572873 26 87 78 1.599527916763714 28 1603 27 1449
27293 -1.3146253788975082 2.0795664258900066 3.0177073486903732 153 155 154 2.0966896401558937 123 75 121 262 66 41 67 16 69 12 65 104 70 67 70 68 69 11 71 258 74 473 72 287 72 291 73 315 73 320 78 629 79 902 77 462 74 475 73 316 78 630 118 365 117 401 119 354
1452 -5.9564504855426126 4.4328576244528861 2.3258776688007434 97 103 103 1.2345061392077157 21 1307 19 1393 20 1144 22 1151 23 1430
6539 1.0529464572462948 -5.4731767671698739 0.44491145896542467 152 154 153 0.18306261620564723 26 14 27 21
27292 0.3554113022160571 1.5810416789861643 2.8487393167208994 150 150 135 1.1373202621509444 154 77 155 61 151 125 150 197 142 323 59 108 60 33 61 58 58 167 171 160 57 294 178 121 172 138 179 149 56 447 180 327 55 666 181 643 78 840 182 644 77 608 74 628 73 417 173 115 131 632 98 1308 109 1027 120 791 118 363 117 504 122 2 121 81 119 215
11724 -0.077161171264306563 3.199179971110615 3.0584311904933723 123 116 90 1.930308411694978 163 917 171 799 165 679 165 681 162 434 170 587 166 429 167 432 168 378 168 380 161 427 169 358 159 263 158 278 156 489 154 418 151 427
1451 -5.3668257282645939 4.3421930714347043 2.2592957153445208 145 148 155 1.7367728100042812 21 1308 19 1391 38 1377 20 1147 18 1104
6538 5.5512107854010608 -2.1407973423458153 1.815328845345733 104 107 68 1.5209815683156254 14 236 24 340 30 50 25 849 13 552 29 449 28 904 11 975 26 883 10 1004 27 931 24 349 26 893
27291 0.24832320935286439 1.7776717758099565 2.8901610027815416 59 76 58 1.4167506066237092 155 97 154 114 151 150 150 249 142 410 59 289 60 253 61 204 58 330 63 101 163 262 171 264 165 71 57 439 132 187 170 160 178 283 130 148 169 19 172 259 179 270 71 200 56 568 174 278 55 802 55 803 181 739 78 910 77 651 74 678 72 301 73 488 73 489 173 222 176 210 177 189 174 277 131 722 118 443 122 144 121 205 119 335
11723 -0.13081081312192172 3.1577953880066505 3.0481376719913884 147 135 107 2.257944101243075 163 896 165 668 165 672 170 578 162 421 162 425 171 786 167 422 168 366 168 368 170 576 161 403 161 407 169 346 169 347 169 350 160 236 170 575 160 233
1450 -5.4924242474758511 4.325661736352937 2.1569215082902762 109 109 119 0.9917400286168423 21 1303 38 1376 22 1149 23 1425
22203 -0.34571917708242172 0.66419514440689786 2.7230470318724649 110 90 99 0.70244245102490444 142 97 131 411 98 1177 109 870 87 1238 120 618
6537 5.6916374551249715 -0.57607878098611898 2.1511664251439533 110 87 49 1.5898547503861142 14 698 30 495 29 796 28 1292 27 1441 3 302 14 710
27290 0.030835568197052493 1.5398660662403185 2.8630035708121961 100 85 36 1.7922565376644217 122 26 121 86 119 179 59 86 61 37 58 138 163 31 57 260 178 135 172 126 59 85 60 10 61 34 58 136 163 32 57 259 178 133 56 409 174 191 180 364 55 632 78 672 72 107 72 109 73 294 73 295 176 138 118 298
1449 -6.0726746999194683 4.3870519359955926 2.2025848924180007 61 71 73 2.1423556407009885 21 1302 19 1384 20 1127 22 1148 23 1420
22202 0.055834502478072791 0.6467905292468461 2.7128524352908996 143 88 85 0.7084420009721647 142 121 131 410 98 1112 87 1169 76 1205 120 602
6536 2.9785687077533045 -2.168170870413189 1.9597608987708757 56 82 91 1.7567014362541613 14 246 24 331 30 211 25 759 13 545 29 562 28 922 11 908 26 786 10 905 27 850 14 240 24 324 30 200 11 899 26 776 12 516 9 862 9 873 6 612 7 618 8 482 8 485
27289 0.090594056272224568 1.6061758318778776 2.8718117817111599 103 69 46 1.0037500729575144 122 47 121 116 119 227 59 155 60 79 61 102 58 202 163 115 171 156 62 1 57 319 170 77 178 174 172 166 179 190 56 466 174 216 180 374 55 688 19 704 38 612 37 384 36 380 35 462 34 266 33 254 3 756 32 450 1 867 137 808 138 836 139 813 140 949 141 964 143 1085 144 1265 145 1472 134 280 132 139 130 87 133 182 181 693 78 730 77 533 74 545 72 157 71 62 73 347 173 147 176 158 154 66 155 53 177 132 118 341 117 451
11721 -0.12298561176756301 3.0601021962147614 3.0223044850892964 123 102 73 2.0015356969637996 163 849 165 636 170 536 162 377 171 741 166 375 167 384 168 333 161 368 159 212 160 203 157 302 156 442 155 326 154 385 151 389 150 563
1448 -2.237623135845749 3.9950374251390235 3.3701958128374256 91 92 105 1.3594977493782632 16 1054 19 1382 38 1331 3 1434 4 1376 2 1403 15 1186
22201 -0.39506373430112446 0.66592787901334582 2.7302426946180107 93 61 75 0.70396124052271125 142 93 131 409 98 1186 109 873 87 1247
