# 3D point list with one line of data per point:
#   POINT3D_ID, X, Y, Z, R, G, B, ERROR, TRACK[] as (IMAGE_ID, POINT2D_IDX)
# Number of points: 314, mean track length: 8.0170868682040872
14891 -0.50546894598339298 -3.8580179572952131 2.1540697009561889 149 151 150 1.3146045510928142 42 325 154 570 143 889 132 979 121 942 110 875 75 797 147 848 145 499 148 768
19978 -0.33838719425493441 0.30737471927817106 2.7860900428020821 189 191 190 1.5266960174200046 68 518 66 248
14890 5.7142153560483715 -5.2743018726014217 0.72252011271895422 138 138 138 0.70000091055323643 42 583 154 562 143 576 132 588
4617 2.6101113569632055 4.0880610488611326 2.9105205186486147 48 40 38 2.1452692451381599 19 1092 34 1187 35 1275 38 1630 38 1633 1 1279 5 1081 23 829 1 1280 24 512 95 1792
19977 -5.2985794483889466 0.64724395466508478 3.3708426346717522 87 88 79 0.99466021509435498 67 292 66 245 65 182
14878 5.1370692601087509 -5.344835489832489 1.080678918693744 151 153 152 0.16833518519588453 42 536 154 501 143 533
19965 -5.5915444047084488 -0.71652909143947097 3.2442162096285143 163 169 167 1.3965280640195139 67 107 68 124 66 59
14875 2.2443642360264895 -4.6666127924496417 1.6379836343162182 93 95 90 0.63790531706376596 42 447 154 477 143 575 132 600 121 566 110 523 75 532
19962 -2.4537408843394322 2.9673760947948775 3.5477460815975776 91 93 90 0.54375412338707119 65 542 63 501
19961 -0.48249961913114336 0.40856428415625423 2.9300937154055662 191 191 191 1.1850207213906685 69 630 67 420
14870 5.4531391473275441 -5.5029902950482485 0.67140984431470352 120 120 118 0.27133720496899166 42 502 154 450 143 477 132 490
19957 -1.6584412333473839 0.79874214846118008 3.1074466543248684 97 80 57 1.6847406100267648 71 941 67 431 69 583 67 434
14866 5.2471087259791123 -5.5573334869638193 0.82588336436837073 95 95 95 0.87782063438049074 42 475 154 423 143 440
19953 0.38709574073412389 0.61866488105198947 2.7914115076900585 80 84 55 0.96396857575588712 105 910 107 433 108 323 109 284 137 531 111 156 135 268 139 1125 136 372 112 15 67 590 68 713 69 844 66 427 133 84 65 211
14863 2.3683528153579516 -4.8138405511827136 1.6004017628507867 108 110 106 0.55296599809704328 42 398 53 307 154 407 143 509 132 539 121 506 110 471 75 481
19950 -0.44746496025524851 0.13404911307500372 2.8112903559618356 72 127 148 1.9425049707247222 70 595 68 471 69 570 68 469 67 331 86 1109 158 1057 159 784 139 1011 160 506 158 1060 161 416 161 413 41 397 138 586 139 1012 137 379 66 177 40 134 39 91
14858 -0.60535229241424948 -4.037496093032714 2.1361621045702037 90 71 67 1.1255335632399686 143 677 132 763 121 739 110 682 75 644 42 161 145 376 144 191 148 654 150 594 151 639 146 578 78 446 79 476
19945 0.38838808550261128 0.17386387556157817 2.7153981112718375 101 86 94 1.5237664603056851 69 728 68 574 67 418 140 1181 139 993 107 282 108 186 109 120 137 404 138 589 136 224 66 204
14857 -0.64046664496790595 -4.0525009881209355 2.1355281090558167 84 65 58 1.1334699464179534 42 138 154 318 143 648 154 319 132 738 121 714 110 658 75 623 147 715 145 361 144 174 149 690 148 641 150 584 151 623 146 561 144 168 152 357 79 463
4584 2.949143164954815 1.077271961631753 2.503406851786421 92 39 22 2.1837877992953088 18 568 20 503 21 473 33 820 25 68
19944 -0.19905275316996879 0.32273204280771217 2.8096281731846937 161 162 155 1.7184529792933376 69 656 70 679 67 412 105 856 106 556 107 311 108 217 109 133 138 635 137 454 136 280 135 162 134 108 66 263
14853 -0.59785765878675601 -4.089531212970889 2.1237631917984547 129 86 68 1.0173682080359912 42 126 154 304 143 605
4580 -0.16852713232448949 0.5142483038689426 2.8507027799079587 105 79 69 1.8310614710566777 6 464 18 418 21 239 34 503 7 227 5 626 32 998
19940 0.24935036714062309 0.18244969922936341 2.7358195762680717 109 136 116 0.88553396905169868 69 682 68 556 67 405 138 592 139 1008 137 408 66 207 109 108
19939 0.38183913781847778 0.67886306704819399 2.8010215691763776 75 73 62 1.6929016316979599 68 740 69 862 104 1161 105 934 106 702 107 459 108 361 107 460 109 318 111 187 112 50 112 51 135 300 139 1156 138 747 137 557 136 405 68 736 67 617 66 457 133 114 65 254 63 78 44 201
14850 4.2505746196440137 -5.6887895430094177 1.1804854972347116 167 168 162 0.03557449172365517 53 285 143 322
19937 0.18384927128711723 1.1477629808564187 2.9122189749649783 148 150 143 1.5135932656433693 105 1140 109 526 111 350 135 418 68 816 67 689 105 1139 106 882 107 638 108 531 109 527 137 672 138 861 111 351 112 184 136 536 135 419 68 820 134 353 108 533 66 542 133 227 133 229 131 110 131 112 65 404 63 260 62 51
14849 -0.53706294621331185 -4.1125609974906894 2.1125850843580158 128 94 63 1.14388999038962 42 129 154 298 143 589 132 682 121 661 110 601 75 579 147 669 145 303 144 112 144 115 149 637 148 595 150 536 151 571 146 510 77 272 78 395 152 311 153 198 79 425 80 196
4576 -5.5026009801109934 0.070327843954008581 3.3193542307650228 83 114 143 1.7554980148796451 17 745 20 139 19 103 35 457
19936 -0.35011220542584187 0.94105542859319358 2.9395245953605404 117 89 105 0.82205780498874959 109 463 111 279 112 92 67 569 138 835 137 647 136 511 69 759 66 478 133 195 65 326
14848 -0.71611848129574607 -4.0614562888000005 2.1366932888368546 138 133 129 1.6722855551919507 154 293 121 690 132 713 110 634 75 603 147 695 42 106 145 348 144 158 145 355 149 672 148 626 150 563 146 556 146 560 151 609 152 351 153 232
4575 0.21078630467200865 -0.13532405472521195 2.650731782437616 155 121 94 1.7072176161240644 17 675 20 76 19 69
19935 -0.059953799634245027 -0.4312116570913202 2.6713588007451312 113 128 95 1.6177677491681188 103 901 104 793 106 262 71 926 138 395 105 562 107 50 105 565 67 122 85 1034 71 923 69 440 68 285 67 123
19934 0.34519507747126221 -0.30818440811498532 2.640080306565654 101 98 117 1.7026340335125536 86 1012 85 1191 69 555 70 635 68 383 107 147 108 25 67 164 139 855 138 451 137 252 136 95
19923 -1.3783709450494137 2.5685649074107477 3.3563961844497459 91 83 68 1.7824082287099126 68 809 67 748 66 641 62 355 60 140 47 197 59 63 49 10 48 54 46 320 61 209
19921 -1.6855058090755017 2.643033078038536 3.4164356283263286 122 108 85 1.4909509503911 68 777 67 724 66 622 65 558 62 351 61 211
14832 -0.21349829893008263 -4.2974057183609311 2.0825123326683821 89 92 99 1.5686360279475866 42 127 154 260 143 469 132 551 132 556 121 535 110 485 110 492
19919 -1.9759042930218313 2.7931518581280481 3.4698206588665328 119 124 128 1.0973370859769636 68 771 67 708 66 615 65 557
14831 2.4059214132058759 -5.2331482529340159 1.4876749681454982 123 116 100 0.94944255960758339 53 172 154 255 143 297 132 338 121 332 110 295
4558 -5.2585823410031072 3.2672958282932565 2.9759407399684461 79 71 72 0.60349867001223889 20 1135 21 698 7 1009
19918 -2.008375072013763 2.7527097684978501 3.5182892048442858 134 130 115 1.3142731524353333 68 764 67 699 66 605 65 544
14821 -0.74151366247835293 -4.1445715410843063 2.1307220879390081 125 114 66 1.3405319388323527 42 62 154 222 143 508 132 598 121 584 110 529 75 523 147 629 145 259 144 64 149 598 148 562 150 502 151 535 146 483 152 295 153 201
19908 -0.32148508292993411 1.0029803655859273 2.9432787346108129 165 166 161 1.2684009952187199 68 670 67 597 66 497 65 342 63 190
19900 -1.3746652400467017 1.2222072068515026 3.1387479071595847 103 104 105 0.66539662825530799 70 677 67 526 66 463 65 352
14811 -0.3547291559186288 -4.3553455193550992 2.0487086846367806 107 115 121 1.7745378835185601 42 66 154 193 143 372 154 191 132 457 121 450 110 403 75 417 147 460 145 91 149 436 148 428 150 353 151 385 146 311 77 130 145 95 153 37 79 314 80 135
4538 3.0030372661454177 5.655670179035722 3.1030036749624048 51 49 40 1.1764988435047101 6 1320 20 2043 19 1491 7 1282 37 1666 36 1305 24 1231
19898 -1.6032890005973408 1.2480929604698681 3.1504379290122237 68 72 71 0.94274181589573924 68 572 67 510 66 455
14809 -0.36240315292999203 -4.3616294716435018 2.0480324052616719 83 100 116 1.4364072914615418 42 61 154 187 143 366 42 63 132 448 121 442 110 396 75 409 147 458 149 426 149 432 148 426 146 308 78 225
4536 0.97791580416825818 6.0698279419149701 3.4671998249873428 120 121 126 0.97987119155067504 6 1421 19 1560 20 2033 7 1380 37 1663 36 1337 23 1159 25 1250 24 997 25 1251
19896 -1.7038136344327026 1.2674732307000958 3.1856891974919832 67 70 70 2.4078070383948553 68 568 69 655 67 506
14806 2.677503591890928 -5.6228374668682042 1.4215309463079038 98 90 67 0.57858458789304845 42 164 154 179 121 263 110 220 75 242
4533 2.4455401513892068 5.642730783751408 3.1851056032473535 48 54 53 1.4384662060349056 6 1327 20 1997 19 1474 7 1288 37 1639 23 1287 23 1290 24 1101
19893 -1.6890106731415089 0.80053606697480817 3.1089383045169332 94 88 74 1.8185114340596158 67 433 68 504 66 337 65 246 63 147
14805 -0.76545232545572917 -4.2050364571599133 2.1253051774426326 76 102 112 1.5008586489912015 42 37 154 177 143 424 132 523 121 514 110 468 75 465 147 566 149 544 148 514 150 459 151 491 152 264
4532 3.3786442686567844 5.3822131284030688 2.9346994949260989 48 46 39 1.9959791893461083 6 1263 20 1994 19 1431 7 1235
19892 0.24408483137966619 0.23060483660569051 2.7431677276893653 159 138 133 1.6066355542300268 68 565 69 705 67 426 66 235 109 132
14798 -0.82853237663523793 -4.2157423674930303 2.1196730776771879 88 93 86 1.690450562470591 42 0 154 157 143 385 132 491 121 489 110 442 75 446 147 558 148 507 150 451 151 485 146 402 78 330 74 151 152 255 153 159 81 147
4525 3.2052420399011825 5.2785662691605815 2.9771969803437717 26 38 36 2.5081216686162424 6 1248 20 1959 19 1399 7 1213 37 1603 36 1262 23 1351 24 1129 24 1135
19885 -1.3783231525010129 0.42784114683908669 2.9658409764175655 87 101 75 1.4503923950109507 68 454 67 363 70 546
14796 -0.45901711142545382 -4.3873526297276975 2.0176550835280826 135 141 144 1.9967193640902088 42 35 154 154 143 310 132 389
19883 -2.3885562802047113 0.59992304944652253 3.1608704829814909 115 155 162 1.4545728870294758 68 412 67 350 66 275 65 185
14795 -0.50959574726656465 -4.3692803101021447 2.0652095635664218 133 118 87 1.2401783383143943 42 34 154 152 143 318 132 399 121 399 110 363 75 378 147 448 145 84 149 421 149 423 148 411 150 347 151 381 77 134 78 224 152 169 153 45 79 309
4522 2.6234196086630059 5.3540009713282286 3.1293924746865716 36 31 29 1.7101584571983515 6 1277 20 1941 19 1395 34 1400 7 1227 7 1239 37 1597 23 1248 24 1026 24 1035
19882 -0.1039775517167863 0.056863225915394215 2.8230952025117175 194 194 194 1.7574211330661154 137 344 67 326
14793 2.5003008605218286 -5.6783517537774735 1.4309894456062797 77 87 88 0.53130922276768466 42 121 154 149 143 186 132 236 121 243 110 198 75 213
4520 0.15033953409645467 5.8213941270741545 3.5494704389309151 130 146 150 0.74313726599629537 6 1414 20 1931 19 1473 21 1471 7 1363 37 1595 36 1278 23 1009 25 1099 24 830
19880 -2.4796377159023617 0.40897010915784526 3.1080697387918517 121 117 114 0.51082318298739038 69 431 66 238
19878 -5.267485712428801 0.66270355082598575 3.3684073475926803 96 98 87 1.0633339268012694 69 327 67 294 66 247 68 302 65 183
19876 -0.87060473256085613 -0.0051041209633481237 2.7861592530248851 154 157 154 0.9648631351626662 68 370 66 123
14788 1.630647660630133 -5.3976211196249295 1.5923345864026921 109 101 80 0.92724737775831756 42 78 154 126 143 177 132 230 121 239 110 194 75 211
4515 0.58416714902296674 5.6779529644941169 3.4578025553742506 121 123 119 1.5263790561525865 6 1395 20 1913 19 1447 21 1475 7 1344 37 1588 23 1024 25 1127 24 847 36 1254
19875 -2.1299887449415982 0.14054149676888311 3.0711584471351054 143 130 124 2.5863606129447096 70 427 67 277
14787 1.8675931541311441 -5.5147434245285751 1.5423397952208009 79 70 61 0.59686181064024324 42 80 154 122 143 171 132 225 121 234 110 188 75 205
4514 0.71732453919438088 5.6151257389205682 3.4247891872128653 89 82 89 1.3425003119361996 6 1381 20 1906 19 1436 21 1473 34 1398 7 1337 37 1578 36 1255 23 1033 24 834 24 844
19874 0.39950695296223082 -0.16758813159948663 2.6709171419375455 137 146 141 2.5619005495630081 137 302 67 263
14786 2.290247291173916 -5.7139117381829267 1.4551029160175144 129 131 126 0.42374446107598607 42 83 154 119 143 165 53 9 132 216 110 179 75 193
4513 0.84872972238742317 5.6093418074872226 3.4257089532815379 28 78 101 1.3814777030925931 6 1373 20 1899 19 1429 20 1909 21 1481 34 1399 7 1329 37 1583 38 1870 36 1260 23 1040 25 1147 25 1157 24 857 22 836
19873 -1.1322208292005693 -0.018971275829066721 2.890633963618364 134 140 104 1.1506337214764306 68 350 67 259
19872 -1.1084814853994804 -0.095712337686730195 2.857999633323614 136 143 109 1.0437055538343893 68 332 67 229
14783 0.12125421613675411 -4.7416912854799946 1.7190684090399404 118 130 128 0.70021747814259205 42 9 143 193 132 257 121 270
4510 3.0078734978975343 5.115200962564268 3.0236806831128393 63 60 52 1.5900919077583304 6 1211 20 1892 19 1336 34 1361 7 1172 37 1567 38 1849 36 1218 1 1403 23 1244 24 1017
19870 -2.8455218805425844 -0.12344546990257367 3.1591283247024551 138 151 140 0.13882035594675296 68 245 67 185
14778 2.0602442405770138 -5.6869544201625075 1.4851617152197443 124 126 123 2.1226127178240137 42 68 154 95 143 153 132 205 132 209 121 214 110 169 110 172 75 179 75 183 154 92
4505 2.3209287819691604 5.1597175830290496 3.100277102791003 79 62 52 1.1061304176623896 6 1252 20 1856 19 1335 34 1346 7 1205 36 1208 23 1125 24 913
19865 -1.9752001700189317 -0.71953384654152674 2.8788712844012037 158 158 121 1.8489796837500379 69 183 67 69 69 184
14771 1.5338373743059324 -5.5120819769449101 1.5881802352400245 119 124 118 0.56187989357165058 42 46 154 73 143 147 132 201 121 211 110 165 75 176
19858 0.28685528381245745 1.1877102652357134 2.815875067410877 0 0 0 2.2803246087639302 136 555 138 883
14769 1.7925826541489107 -5.6768530059984217 1.5314126014329006 81 75 69 1.0094271473053664 42 44 154 63 143 136 154 62 132 193 121 201 110 157 75 160
19856 0.29892126659282564 1.1008722467562992 2.8780144428814216 137 142 134 0.92579809762857246 135 412 134 348 133 222 131 100
19853 0.33292354287776887 0.17028599944392819 2.666219924392196 135 140 120 2.1021918702133409 135 111 134 64
19851 0.85718919968148577 0.77627605562391722 2.7558932790967616 74 92 79 2.1568159796203723 139 1175 138 774 137 590 139 1176 138 775 137 592 136 464 135 363 135 364 134 313 107 488 108 395 106 705 107 487 109 384 111 266 112 134 112 136 134 312
19850 -0.28813935225693649 0.099785793567469583 2.7921379255721046 117 133 136 1.9012326489580222 136 182 134 10 140 1185 139 984 138 559 138 564 139 987 137 373 71 993 69 591 70 624 68 476 105 754 106 467 107 246 108 133 109 5 106 469 137 366 136 184 135 63 134 11 70 627 67 324 67 330 66 156 66 159
19846 0.14091793240415204 0.76527058185191665 2.8519014416424997 98 66 58 0.88798743419243031 105 1000 106 756 107 524 108 416 109 368 111 223 112 59 134 287 139 1197 138 789 136 449 66 461
19845 1.0328548299962446 0.81944807107284812 2.7415275755960971 86 91 82 1.4711216907426983 104 1114 105 908 106 710 107 494 108 412 109 398 137 610 111 278 112 143 136 484 135 380 139 1182 138 785 134 326 134 327 139 1181 138 784 137 609 136 483 135 378
19844 0.38678462691778709 1.7633955078671555 2.9890591453484969 108 95 50 1.5057472907008544 107 749 108 637 109 717 137 758 111 527 112 395 136 641 135 517 113 195 134 450 137 760 136 644 135 519 66 747 133 322 131 231 65 650 63 524 44 647 62 217 130 115 61 30 45 330
19842 0.93057251119619122 1.3009259629493863 2.8357808741002266 157 154 144 1.813371934485573 105 1073 106 857 107 625 108 529 111 399 112 235 113 43 113 46 134 378 134 379 138 871 137 684 136 567 137 686 135 447 135 448 137 683 108 525 133 255 133 256 133 257
19841 0.47491679923241281 1.9373125698054621 3.0044348525858871 60 69 42 1.4356867991749716 107 788 109 772 111 605 112 496 113 285 134 514 137 822 136 709 133 391 114 63 131 312 63 632 65 778 62 341 130 210 130 214 129 98 61 115
19840 1.1140557340918293 2.0112895884279598 2.9327248248958746 153 155 137 1.4720850766529534 106 989 107 733 108 623 109 720 137 821 135 587 113 311 134 535 134 536 108 625 109 727 133 415 133 417 133 419 114 105
19837 1.0552843449513079 1.8754562285579581 2.9195891989592928 116 112 102 1.806005153305162 107 713 108 608 109 681 137 773 136 662 135 546 113 265 134 494 108 610 109 682 133 374 133 379 114 83 131 299 131 302
19832 0.18654402141293874 2.4334696729894039 3.1216069656360323 140 137 102 2.5041712850492628 135 651 134 611 133 466 133 467 130 317 131 387
19828 1.0348606230434985 1.9343882050064669 2.8038433316400115 162 163 157 1.1973626974422757 135 590 134 537
19821 0.57501233976781041 1.8060210910127239 2.8388892092726183 0 0 0 0.70108824615448739 135 558 136 691
19819 0.047346518068909417 1.8142006071400945 3.0268764809195488 141 150 131 2.0010785295966915 136 678 137 805 134 478
19809 -0.23541271407303371 1.5172082000027309 3.0247021796151268 141 115 121 2.2742714015548451 135 468 134 402 131 152
19805 -0.29182996764369246 0.98320758099280603 2.9596987593153896 130 130 125 1.7511630822541842 135 405 134 338 133 206 131 65
19803 0.19959971980286431 0.89695760272679026 2.8715969383065114 132 112 85 1.2967440301511051 107 570 134 331 109 434 111 280
19802 1.0256320644186718 0.82574784126324663 2.7213583389714002 133 146 128 0.36832804331171687 135 383 134 329
19801 0.36531574592896382 0.85058477576168945 2.8814057156615149 137 126 96 1.4574229138374932 135 377 137 618 134 318
19798 0.085705064970918649 0.81568451618574611 2.8648783363338857 120 110 108 0.97781060138936737 108 447 135 369 105 1034 109 397 111 239 134 305 133 165 131 17 45 34
19796 -0.23542516318828546 0.69826479109998796 2.913019586598574 40 36 42 0.92856508061896725 135 292 134 248 133 88
19793 0.69638265621941009 0.53027028957645383 2.7084522466447538 100 77 85 0.3867187106547908 135 234 134 206
19792 0.16567965158888009 0.5349805483731449 2.7444346541751372 154 158 167 0.31740025704313113 135 222 134 192
19790 -0.19966936945510272 0.31992184584567768 2.8630800573548481 167 171 152 0.40511804044092947 135 161 134 107
19789 0.28671156768149508 0.26905455391574851 2.747849244914808 154 141 109 0.94510658827364469 135 155 134 106
19785 0.80961695047576676 0.15180453126685023 2.6507098675561744 77 124 108 0.98796379100428267 135 123 136 232 134 80
19779 0.65142720803872656 0.059357392028651534 2.6394595925218938 137 150 142 0.65377992225613069 135 73 134 34
19773 -0.42473049278213842 -0.21362920130732563 2.7559515122243998 0 0 0 2.2799513024641067 8 433 14 928
19771 1.8459001348172446 -2.5567379039452707 1.9351185738185999 0 0 0 1.0479439573033775 8 101 14 436
19770 -1.1573699217269613 -2.7463985573294565 2.3666241621543871 156 164 177 2.1092543273304245 2 346 31 319 27 376 28 962
19768 2.4380588046266412 -2.8700625660354615 2.1722847950516186 161 167 165 2.5846437009191385 14 364 31 293
19764 -0.56490444917138194 -3.599586290910477 1.3016874559079528 160 165 169 2.0843118291515235 2 57 31 165
19763 1.9471502317557439 -3.7303801707017525 1.8587925783282051 88 81 67 2.3360570734365664 14 182 31 164
19761 -1.6752687661506918 -4.3497400115600202 2.1621050525523171 0 0 0 1.8418105154996307 2 45 27 116
19755 -7.6652198748963452 -0.42198566222616651 3.3122807782883559 64 65 60 1.8568600012094281 27 658 31 553 37 447 33 414 38 703 1 728 28 1107
19754 -0.4472601717769541 -0.56943324306820831 2.6949496502080588 134 136 134 1.908903617058296 158 739 88 822 90 586 86 852 71 791 156 1199 157 880 140 937 139 733 138 327 138 330 69 338 70 434 84 742 68 212 156 1208 157 881 141 994
19747 -6.9966506214067019 1.2335163284546862 3.2647710425032965 55 61 57 1.5195666740472986 33 668 31 773
19746 -0.29328668728802731 0.24536990230105482 2.8337304805042067 0 0 0 1.4330270868585846 8 498 36 397 9 1219
19743 3.2781865893651725 -0.64213965127070871 2.0936690018788888 135 140 134 0.86095864138590694 14 896 31 737
19732 1.276785785980435 -0.56250118069978639 2.591431989880062 166 167 171 2.7114159206799204 14 862 31 661
19727 0.79054079323438997 -0.72918061830281744 2.5100544566180711 103 111 90 1.0396702666101656 8 346 31 619
19725 -0.66826120689621071 -0.76292959136524885 2.5449625825233269 0 0 0 0.44780458895904895 8 305 14 782
19724 0.38651966863414416 -0.93411052810295081 2.5657293740019216 0 0 0 2.3117288250675569 27 946 5 285 9 929 27 957
19720 0.58621380179402527 -1.1261870081836789 2.4965690872326269 0 0 0 1.7899500426663384 2 572 27 901 2 569
19718 0.91097642101667264 -1.3546161919000341 2.4120498928601677 0 0 0 1.5187511683102641 8 251 27 850 14 653 2 538
19716 -5.9000220844859195 -0.99633396337408464 3.2930439776006155 158 159 164 2.7557154344023163 33 319 31 504
19714 0.57762462163076123 -1.4122318137343037 2.5015588336503742 0 0 0 1.7895111736987697 2 536 8 232
19713 3.2231479146075852 -1.6638897129921772 2.0562923038444558 29 66 85 2.0181511411532993 14 629 31 494
19710 3.2752708996663955 -1.7694022777477438 1.9981354865851313 54 74 76 0.47950483251054821 8 236 31 482
19706 -0.43352630587174312 -1.8149070151469933 2.4402294170135819 150 153 158 1.7127270993264929 8 138 31 452 14 586
19703 3.2537850098378236 -1.9884785993566867 2.1064635450589604 47 70 93 0.24606415772619494 14 580 31 447
19702 0.57577000018878033 -1.9196304228098804 2.3382351607862586 161 164 169 0.95209689237200601 36 17 31 444 8 151
19699 -6.4962408082008496 -2.4746001355841409 3.1196976831416339 121 120 118 1.0721957854353963 33 110 31 371
19692 -1.4281949877800297 -2.7397409386392426 2.4983199862084238 0 0 0 0.47129967397866501 2 370 27 387
19690 2.2179963282220805 -2.6432368799812527 2.1936303457067279 86 99 116 2.1202258152373656 31 338 5 54 2 323
19686 -0.50816746456469453 -2.7154531337693508 2.3961283613245259 160 161 163 0.96457247254482648 8 3 31 323
19684 2.2406488951402737 -2.6403626130051903 1.9554406264342372 106 126 114 0.97676439818085337 14 419 31 315
19682 -0.45102348550244886 -2.8020322145608496 2.3269184772877174 157 161 165 2.5770304158593969 2 329 14 348 31 309
19675 -2.3887464567801642 -3.3453851938247836 2.4225819860395288 83 147 157 1.7180161409211003 2 270 27 312 31 256
19671 -2.2703738460702549 -3.767810522774429 2.364167614584022 0 0 0 0.70385032130294944 2 176 27 260
19669 -1.3680482632780406 -3.7027754834548201 2.2906305695355433 157 165 178 0.39743041609012997 14 173 31 212
24753 0.22262952088430382 0.82980341085137832 2.8486384775807667 148 92 89 1.6286148361828976 160 935 161 830 41 836 40 427 44 313 43 367 39 368 45 30 105 1018 106 771 107 546 108 449 109 402 137 621 138 809 111 254 112 104 136 485 68 746 69 859 67 642 66 501 133 172 131 34 65 315 63 139
4207 -2.0298726346312885 4.3032301768877845 3.6652920699150164 74 75 80 0.88866058590889119 6 1243 21 1111 19 1088 20 1426 34 1134 7 1119 37 1314 38 1571 24 355
19666 -1.8574842803738889 -3.9395787012752219 2.3569353300393723 158 165 181 1.1800938012009188 14 135 31 199
24749 -0.20249895735196496 2.8770596457188691 3.2478991695323556 111 111 109 2.2009389498414547 115 58 127 83 128 222 130 413 131 461 47 278 48 118 61 358 60 263 46 546 46 548
19662 -2.3787030426099185 -4.2451072332534476 2.303102811721053 0 0 0 0.53601191593545483 2 84 27 157 28 502
24747 0.30493160558020554 2.2519451369139203 3.0818319949733457 119 145 141 2.1395606714097006 63 702 62 429 62 433 63 703 61 182 60 29 47 148 47 150 60 30 61 183 45 512 46 327 46 328 128 26 129 215 130 284
4201 3.0699981386223714 3.9030117023683202 2.8414714165159434 35 37 41 1.0913724508847382 6 969 20 1509 19 1053 21 1233 34 1167 7 876 37 1367 38 1612 36 1017 1 1258 5 1041 25 1086 35 1249 24 479
14474 -0.20839748901986677 -4.0580023305785318 2.0785647398222316 144 137 121 1.5715778248284173 53 91 42 265 154 433 143 722 132 797 121 761 121 769 110 707 110 714 75 668 147 721 145 358 145 365 144 193 74 165 74 171 149 697 148 660 151 624 146 551 146 553 77 284 77 286 78 434 152 341 152 346 153 194 79 481 81 124 81 128
19660 -1.8753504587707206 -4.3169612946736411 2.4004514273298927 129 134 139 3.2979255496566031 28 491 31 166
19659 2.2731956664262212 -3.770554916019758 1.9600874389018217 125 125 127 2.4353867990953839 14 188 31 163
24733 0.18125270002487967 0.76693262991756816 2.8446072110964025 95 78 66 1.5113763304807502 160 896 161 790 41 792 40 396 44 277 43 341 39 331 105 998 106 754 107 521 108 415 109 369 137 596 139 1199 138 790 111 227 112 63 136 452 135 345 134 290 67 609 68 710 69 821 66 472 133 149 65 294 133 150 45 3
19646 -5.3384766746945091 -1.1626189171552141 3.2523938738196025 178 179 178 1.6695161655315285 79 858 81 612 68 73 84 386 69 107
24732 0.1811986923405019 0.54931795763945446 2.8067941489674593 139 147 152 0.94153689787708383 160 786 161 679 41 651 40 294 44 127 43 197 39 252 139 1099 104 1144 105 907 106 653 107 401 108 279 109 237 137 509 136 340 135 225 133 39 66 366 65 173 63 12
4186 0.14277563981996036 3.9221170938690668 3.2447051485134533 145 139 136 1.3158906901318494 6 1055 20 1397 19 1028 7 936 35 1219 38 1557 1 1250 5 1096 5 1102 25 910 24 343
14459 0.30674630919735602 -4.3237651736923475 1.9598698475194007 131 117 101 1.426670144387417 53 97 42 231 154 341 143 550 132 608 121 577 110 530 75 534 147 491 149 459 148 460 150 363 151 390 152 158
19645 -0.63063036796043892 -0.95189691305525437 2.655457938553778 45 76 81 1.8477758813109812 16 486 17 409 96 497 95 484 94 598 93 562 97 521 99 812 100 994 102 1319 101 1187 89 847 88 680 90 477 92 264 86 699 15 614 18 88 4 593 5 275 32 589 10 1399 2 624 85 650 158 409 159 201 71 624 72 915 156 893 157 573 141 830 157 575 160 54 73 963 69 169 68 87 157 570 158 404 84 574
19641 -0.45327296419137575 -1.1036136748515282 2.6065401249925828 171 172 169 1.6992284495022358 88 636 86 650 141 802 140 698 71 603 69 121 70 262 68 42 68 46 73 950 70 267 84 548 84 552
19640 -1.4721470883142875 -3.8974739504625626 2.2690899282858079 159 161 162 1.6871648139538289 73 34 155 29 74 291 77 412 78 513 78 520 153 295 153 297 73 36 99 150 100 323 102 548 101 458 88 15 89 91 89 90 10 305 9 167 11 246 12 278 30 505 13 364 155 30 29 419
19639 -0.32526707455095966 -0.076903457223585062 2.7694012554930367 141 143 138 1.3426872197722446 95 804 96 830 94 924 93 893 99 1105 100 1256 102 1648 102 1658 101 1490 89 1143 88 1016 86 1053 71 952 159 698 140 1105 157 1142 139 913 160 438 41 305 138 502 69 514 68 398 106 417 107 187 108 37 137 318 136 149 135 15 67 272 66 89 40 82 43 57
24724 0.40555308392950878 1.169382876465858 2.8866191981493832 135 135 124 1.5718350850092078 44 431 43 418 41 919 105 1108 106 870 107 628 108 524 106 867 109 523 111 359 112 198 135 426 135 429 138 858 137 674 136 540 113 2 134 358 67 750 66 581 67 752 133 232 131 122 131 125 65 438 63 285
19637 -0.28007162232136651 0.20549154383964136 2.8096920072564493 147 144 141 1.8244492470854896 160 566 161 456 159 841 158 1111 69 619 70 652 68 503 70 649 158 1110 138 614 139 1027 137 419 106 520 107 275 108 170 106 517 109 67 109 72 137 418 136 223 135 102 138 612 134 58 134 61 67 367 66 208 68 500 69 618 65 44 43 103 161 468 44 34
19636 -0.64730682727259348 -0.88383988681294012 2.6673409980505207 76 91 81 1.6851774265793935 71 645 72 933 156 938 69 192 16 518 6 37 17 440 95 506 16 509 17 426 96 513 94 615 93 580 97 536 99 829 100 1005 102 1337 101 1206 89 868 91 386 88 705 90 488 92 275 92 279 86 722 15 630 15 639 18 107 34 79 35 200 37 387 38 615 36 178 32 613 10 1427 26 213 71 640 160 88 69 188 70 304 68 110 84 589
24722 -0.30553411521247281 0.0033939261408353336 2.7795344267490614 147 151 149 1.5270345497579099 95 817 96 849 94 938 96 845 93 915 97 796 99 1125 102 1665 101 1507 86 1075 88 1037 85 1208 71 964 160 461 161 359 69 551 67 299 40 95 39 67 39 65 140 1133 139 942 138 519 137 327 136 164
19635 -1.3978764585600487 -3.2407108463421843 2.3738563778364381 119 122 123 2.1492932819693822 32 94 11 495 12 502 3 140 14 278 30 671 37 17 38 233 1 285 32 93 10 671 15 113 93 12 94 36 97 90 99 322 100 508 100 515 97 89 94 35 93 7 102 761 102 762 101 675 101 676 89 298 89 302 88 174 90 92 90 94 86 118 86 119 10 672 11 494 85 62 85 64 72 146 156 64 15 115 155 199 28 784 73 236 74 493 77 588 152 528 153 456 81 372 83 149 84 78 82 257 82 258 83 150 84 80 31 261
19634 -2.2616338224565631 -2.7511073150997674 2.564362733213243 105 105 94 2.099744412265812 74 704 77 720 73 378 78 793 84 194 82 340 101 782 89 412 102 878 91 105 90 167 72 264 81 474 71 84 73 377 74 695 77 712 81 472 83 254
19632 -0.27968349809791287 -0.37588771108096597 2.7098653833109494 129 108 118 1.805473803435558 86 944 161 226 41 198 140 1034 139 839 98 1133 16 693 6 227 17 608 96 725 95 706 94 818 93 786 97 697 99 1018 100 1181 102 1545 101 1405 89 1041 91 500 88 903 90 630 15 800 18 247 18 252 19 5 34 242 37 511 33 474 32 788 71 894 140 1033 157 1013 105 591 138 424 138 426 106 270 137 215 137 222 160 315 69 429 70 516 68 290 138 427 136 40 67 142
19631 0.46463818182486666 -0.62149017030870579 2.5527610170269357 88 88 88 1.3349024256859632 69 439 71 963 68 237
19630 0.088713252105300913 0.80707678019473561 2.8644815257987886 131 127 125 1.6620551725933066 105 1030 106 780 107 548 108 444 107 542 109 388 109 394 112 70 112 79 111 237 135 361 68 697 136 475 66 480 131 13 63 133 65 305 44 309 65 306 45 33
19625 -2.5465328926102009 0.19213881618696158 3.0928059707158773 130 130 129 1.786991259533443 72 935 73 941 85 960 71 694 72 940 69 389 70 407
24710 -1.4952598189000912 2.6681941875427246 3.3968601794005737 66 61 49 1.8926886504665181 49 40 61 234 47 207 46 338 49 38 47 208 48 72
19623 -1.4943287138957495 0.28303893026715421 2.9865821351006625 38 63 63 1.3230712784180763 71 864 72 1119 69 486 9 1238 16 856 6 399 17 801 96 937 95 900 94 1024 93 1000 97 862 99 1212 100 1334 102 1757 101 1592 89 1208 91 627 88 1053 90 758 92 480 86 1084 15 923 18 376 20 232 19 161 21 135 34 401 7 135 35 563 37 619 38 871 1 773 4 911 35 568 9 1231 85 1119 71 861 72 1115 157 1111 158 989 159 744 6 402 160 516 161 451 69 479 70 517 67 316
24708 -0.20066039449828074 2.870750465717629 3.2575098543178123 153 150 141 1.3555565780147925 45 638 131 457 131 458 133 527 130 412 46 544
19621 1.157517023745976 1.3056174894497152 2.8261581271247054 139 127 101 0.74400120404287773 112 242 113 60
19620 1.1130865649460515 1.2367306686141433 2.8662996465642867 161 155 139 2.0877539085125876 109 520 113 40
19619 1.2386488963878353 1.1825111430185165 2.8165153798565941 141 138 118 0.93750612485303597 112 217 113 35
19618 2.6975345675169677 2.6820722201309883 2.8287908604731018 119 104 104 1.3836307183857706 112 564 106 968 112 566 114 236 113 395 115 92
19616 2.9260339398394564 4.3328176334957655 3.0861532639829474 89 95 86 1.0521806742298392 109 936 111 798 113 548 113 552 111 799 112 726 114 491 115 315 116 319 117 320 118 338
19615 0.84572183248534749 2.0029691789880415 2.9673666825935574 40 36 28 2.064595539910937 111 599 109 749 108 651 113 308 111 593
19611 10.388305920356776 9.5550921806131033 2.5674258954142601 114 118 98 1.3118888054276316 112 807 113 659 111 846 113 658
19609 -0.11448200988241609 1.6064940509135053 3.0162092934026226 101 103 93 1.6899040854176288 107 777 108 662 109 723 111 504 112 337 135 483 113 87 108 660 109 721 111 502 112 331 134 411 137 732 133 275 131 168 131 169 135 482
19607 9.915670097230981 9.8781726551159661 2.9020483054145569 118 121 104 1.1735176083094296 112 852 113 678 114 742 113 679 115 649 117 770 118 839
24689 -1.2568896643514333 1.8708757682804296 3.2336424766287344 149 156 154 1.1145821776930578 45 258 47 98 46 173
4143 0.22962217878839478 0.92011923293933517 2.7950567962464001 136 89 83 1.3803616661741573 17 1014 18 531 35 727
14416 2.1474179419259665 -5.390273356107472 1.5245547014823126 103 108 111 0.87332274681620614 53 60 42 155 154 185 143 218 132 266 121 275 110 229 75 253
19602 2.4799904637283214 5.1100445117856017 3.2795575155110885 95 97 85 0.66652503327476498 112 870 113 665 114 621 115 493 116 550 117 532 118 569 119 525
24687 0.081896746280528593 1.8024248081200469 3.0238492292366193 131 135 118 0.63415634089176964 45 312 46 155
4141 0.23809567753455416 0.74556068923856433 2.7982874261141459 107 110 108 0.98985444584643789 17 958 18 478 20 383 21 314 34 563
14414 2.6263203956654846 -5.6445504757943343 1.4219545670234437 87 82 62 0.62807695966587418 53 63 42 150 154 166 143 197 132 249 121 256 110 212 75 232
19600 2.4743314195230361 5.0565599491127751 3.2667784579253292 81 83 73 0.57276680850432049 112 865 113 661 114 605 115 482 116 539 117 520 118 555 119 515
24681 -0.11107734746873955 1.6112059479617677 3.0107048212483023 149 141 122 2.2453697507756898 130 35 46 77
4135 -0.23261036665171653 -0.59314741566335216 2.7456226704945914 113 73 74 2.3762803681163844 6 177 15 735 1 634 4 702 5 386 32 712 32 713 4 703
14408 2.0575219109241405 -5.403020205405781 1.5296240896974007 116 109 104 0.83049735832184224 53 42 42 136 154 167 143 205 132 259 121 266 110 223 143 211 75 246
19594 5.0560749498759758 6.3722783425070357 3.1125683814299858 130 134 120 1.3979329060055481 112 816 113 650 114 635 116 627 117 620 118 667
19586 3.8927918121017835 5.3687054978987181 3.1571967586197052 107 109 98 0.86507206620635702 111 834 118 561 117 516
19582 0.66090599513575832 3.6633174525123922 3.2668163095791791 39 77 108 1.9459194936812321 114 490 115 243 116 179 117 96 117 101 112 823 115 248 118 123 127 357 126 279 55 131 128 534 56 209 57 284 56 203 55 136 58 329 58 333
19572 0.74364432349759935 3.6370588147342464 3.2503345817469902 44 89 120 1.6361646534260998 112 806 113 594 114 479 115 234 116 166 117 84 118 116 119 103 120 65 120 66 122 55 126 263 55 110 56 178 57 271 59 517
24657 0.19720099938807686 2.1561244455133175 3.0791974089253884 162 164 163 1.9197059710292328 44 796 47 121 45 470 46 282
4111 2.8870362628398398 -0.63557461343061128 2.2080138939223239 80 86 75 1.7423948419588828 16 607 6 201 17 492 15 769 16 600 17 483 18 183 34 299 34 301 37 440 38 660 36 208 33 416 33 417 1 585 10 1482 9 1041 14 888 8 413 31 728
14384 0.30497651456048669 -3.0594229549319976 2.1687211079435262 78 91 91 1.2964733990854334 76 284 53 827 87 90 76 290 42 1020 132 1345 121 1327 110 1234 75 1105 154 1077
19570 -0.15671170974675372 3.1846578749801533 3.2966839649824031 99 103 89 1.5545775509256332 112 851 113 589 114 387 115 138 115 142 116 66 127 178 128 336 129 569 129 571 116 63
19565 2.6992639094689794 4.4740544949813525 3.1319102790493982 98 91 75 1.3507709332190523 112 758 114 522 116 370 117 356 118 390 118 395
19562 -0.12884886490979192 3.1620137344959725 3.2845077809668184 95 97 83 0.35271971841064365 112 832 113 575 114 371
24646 0.29314844721486083 1.8781537250416773 3.0234400317169716 143 144 101 0.91904253292324212 44 693 47 55 46 186 45 384
4100 3.0958986089349145 1.4178042975049867 2.4906343853202335 34 43 38 2.1310317239281198 16 1177 17 1191 21 586 33 940 36 653 6 643 5 783 37 933 25 246
14373 1.2965371800537313 -1.7045361359904661 2.2768394709810829 155 149 128 1.6628181589636755 98 548 154 1471 53 1310 105 130
19559 2.8206164333234205 4.4119728579261102 3.1163920901426883 119 114 99 1.3269543813248073 109 957 113 570 114 512 116 348 117 338 118 371
24645 0.24903220232371912 1.8835507722873992 3.0330614740767685 137 121 76 0.96106128120547518 44 683 45 382 46 191
4099 5.0597880112569849 1.1283337091573056 2.2213582098034093 23 56 54 2.0918906828331356 15 1208 18 582 34 771 7 395 35 823 35 824 37 902 37 903 38 1147 38 1139 5 745
14372 2.243212282452522 -1.5408021303123522 2.1801338123065066 120 126 115 0.92241402010031581 87 688 53 1305 103 565 42 1489 154 1415 105 281 106 80
19558 0.023566207838852136 3.2024335022250612 3.2712046088393243 121 128 117 0.97620893458536795 112 813 113 569 114 375 116 83 127 185 126 69 128 345 129 578
19556 0.012716761859946711 3.188530542112181 3.2663055325017987 120 127 117 1.277717087638151 112 811 113 567 114 372
19554 -0.0044141085329238742 3.1768976824167714 3.2735589442468713 103 113 105 1.4223181995146565 112 810 113 564 114 368 115 141 116 72 127 180 126 56
24639 0.30734986363657474 1.8211269911097043 3.0146474214069294 76 87 94 1.3357993887833217 44 660 47 22 45 349 46 166
19552 -0.14038024285592576 3.0952763943518269 3.2825816312253022 114 114 104 2.1724748456571117 112 812 113 556 114 357 115 122 116 24 128 313 129 545 131 494
19551 0.10072366857436947 3.1642402340204931 3.1178574810044162 132 129 110 0.53855631129184722 112 791 113 555 114 363 115 140 116 75
19546 0.69225580591338542 3.3505205311663619 3.2108257225653669 91 90 87 1.5296725778980484 111 849 113 539 114 388 115 175 116 113 117 16 118 0 127 238 128 391 129 624 130 493 126 157
24629 -0.35224650826268095 1.7700572918742619 3.0567857063833981 114 90 104 0.045062336076814535 44 571 45 270
19542 2.5844867861819565 3.6853039469082902 3.0125418278693004 103 105 100 0.9584559815882655 112 680 113 504 114 373 115 213 116 181 116 182 117 150
24628 -0.34148161507461799 1.771301987916849 3.0720074059152354 50 51 55 0.2790687428062204 44 574 46 132
19541 3.2581903031912582 3.7784688778118718 2.9601711010801246 89 96 87 1.003992360268751 112 658 113 495 114 365 115 217 114 367 116 201
24624 -1.3685058228731584 1.8096527022248443 3.2304846922036936 84 86 73 0.5008688718712071 47 95 45 234
19537 0.7162839677060534 2.4781070930478841 3.0547026861477558 96 100 83 0.82175331196058332 112 597 113 401 114 195
19535 0.75358668098816672 2.4413009329504218 3.0454420512668494 53 63 55 0.97200425909477273 112 589 113 392 114 185 115 12 129 280 130 327
24620 -0.38008957606326271 1.565409039021062 3.0358131140070324 168 168 168 2.5231804500278661 44 511 45 190
19533 -0.2777689254803079 2.2283683351737413 3.1589731351608084 147 148 143 0.40223630580883102 112 605 113 359 114 98
19532 0.14245318336100038 2.2152236563088756 3.1035467597140167 109 132 126 0.68498215091748549 112 576 113 350 114 112
24618 -0.48996791778192456 0.84218674835001317 2.9376687285100829 102 100 87 1.2008674498331575 43 333 45 77
4072 -5.1824021394160198 0.3945999197290786 3.235466774887628 100 103 92 1.1011831767283298 17 838 20 234 17 828 19 167 21 75 35 539
19531 0.15089048657389212 2.1817852190218354 3.0939116711455217 139 141 138 1.5130689559738004 112 573 113 345 114 104
24617 -0.19634205789534115 0.89119636064467722 2.9334244546739057 0 0 0 2.4029029463098848 43 363 131 39
19530 0.83434420926164321 2.1559070651860659 2.9958497855912793 145 136 119 2.0053242008522236 109 786 112 545 113 334
24615 -0.022776632685873394 0.75825681993250194 2.8438354686532534 117 111 99 1.2525038065976724 44 271 45 11
4069 -1.5113326193915266 -0.018163218886318527 2.9280957781780472 55 50 44 1.9302383593486994 6 320 15 869 19 99 7 44
19528 0.97199852013518184 1.9781829212301334 2.962825414364715 49 41 32 2.3124887595188341 112 485 113 303 108 631
19525 0.88512928660156232 1.7547785885410683 2.8719107082451156 102 93 68 2.6238665165850028 109 661 113 208
24611 -1.5812811072672162 3.4524520897159059 3.503369287772633 97 91 78 1.2924330458344897 49 139 48 167 51 48
19524 0.0009701579356619131 1.7314316404506762 3.0065769058301481 146 143 112 2.3366783840508702 112 394 113 155
24609 0.51375963359616572 3.5784177779495772 3.2735157690599697 143 139 127 1.516761019275064 52 24 54 41 50 128 57 189 49 277 58 222 58 227 56 123 59 416 60 574 48 373 126 229 127 309 55 74 128 481 129 710
4063 -1.5764219769603163 -0.69039779464811935 2.8192727474928159 78 35 16 1.5670894235032111 6 72 15 682 32 656
14336 0.70248336849918946 -3.1951226531707806 2.1074398859674304 143 145 144 0.83663157768308538 64 464 53 803 42 997 154 1008 143 1187 132 1234 121 1210 110 1124 75 1026
19522 0.066424843008034071 1.642200034553597 2.9319505361645928 162 165 152 0.85599921449299554 111 506 113 108
19521 -0.37536389051028196 1.6453630043061038 3.0625083229747032 121 120 116 0.53672074633814293 112 365 113 81
19520 1.1378627275616555 1.3791085626563162 2.8451919327601596 144 134 107 0.89650122981870783 112 269 113 80
19518 2.5768209510820581 0.85754909897743203 2.5729300345129102 112 121 94 0.48862818750498527 112 186 113 28
24604 -0.18002421675550029 2.7664864499465183 3.2199059727333412 103 105 99 1.6273252389273705 47 253 49 15 48 83 131 437 134 647 111 847 112 727 113 493 114 267 115 32 114 265 128 170 129 379 130 383 127 38 128 174 129 383 127 37 45 611 46 513
4058 0.050224982793947326 -1.2865172499326081 2.547061649883521 128 108 83 1.7994882258435647 16 410 17 322 15 560 18 12 94 529 1 528 10 1327
14331 0.22370859850720093 -3.1426155447821875 2.1843149555769514 99 102 93 1.3921572098121016 76 255 53 788 154 1046 132 1308 121 1292 110 1197 155 149
19517 1.0718352373983109 1.1397760572793671 2.7977534578847205 142 141 121 0.094357353161965085 109 487 113 17
19516 0.43314295728777541 1.2333491228268176 2.8922149151794567 143 135 112 1.4004540332209816 111 380 109 549 66 598 65 460 63 307 62 67 44 452
19515 -0.78143899805338912 -4.279791644014681 2.1085418547994772 150 162 159 1.9292817478898261 81 125 82 6
19508 -7.9837222747751255 -3.584190138519451 3.1681097938062139 122 123 117 1.7121903959310665 81 369 83 242 84 228 82 301 82 304 79 428 81 360 83 240 84 224 80 271 80 274 79 435
19505 -7.0657065412825482 -4.5789202163304221 2.8998047026415663 135 137 136 1.6788587226216301 79 304 81 229 83 169 84 130 82 243 79 300 81 227 83 165 80 208 80 211
19502 -6.8549124260033301 -4.0281778819801284 2.9460942306527471 135 137 132 1.5287016275780243 81 279 83 193 82 271 79 378 81 276 83 192 82 268 80 241
19501 -1.6693029951693366 -3.5958416289222219 2.3402857076265886 149 152 152 1.4831354166043054 72 1 74 358 77 487 78 643 78 644 77 488 82 193 81 249 83 118 80 288
19500 -1.5246882652861407 -3.5755261863587231 2.3321606076980634 168 171 176 1.6700579729598328 83 112 84 37 82 188 83 114 84 38
24585 -0.3200453696970289 3.6925935814901689 3.3968188795845506 0 0 0 0.53879002815958255 47 430 51 97
19498 -7.2107893459901717 1.2510864769440482 3.1899020822162343 118 121 110 0.11431657720443118 83 533 84 586 82 600
24583 -1.5245619329389717 4.0697273675113639 3.5993743293114258 73 78 76 0.91689506438236423 50 258 48 261 51 207
19496 -6.9646363282027881 0.70299549851556653 3.3586011012336683 85 97 89 0.75121249847029703 81 701 82 563
19495 0.29626194790649096 -2.3210788561304629 2.3027913262736943 0 0 0 1.2783904292214263 81 685 83 306
19492 -1.8018487570728556 -2.677998386141939 2.6073687384833808 0 0 0 0.20943318861920443 83 260 84 195
24578 -1.2558415837224479 3.5443227778635351 3.5074323122629094 69 71 60 1.0978985784029769 52 52 55 107 48 194
4032 -2.7545771404655541 -2.6172338879635846 2.8552040025503089 148 149 154 0.67791450741660553 16 79 4 222
14305 2.2864321764115543 -4.0526219330781688 1.7426938789482089 85 88 81 0.73853893971328644 87 66 53 565 42 690 154 745 143 911 132 956 121 908 110 852 75 801
19491 -1.5641565424857753 -2.811621905429881 2.5037804203243508 129 120 115 1.3416571321347692 84 156 82 326
24577 -1.4518006719241328 3.5952996500216559 3.5703545995737263 101 106 109 1.8790996121220509 47 326 55 129 48 193 46 587
19490 -7.9640969270399147 -3.8463070643491228 3.1232627752154984 120 121 113 0.93601816953500816 83 217 84 203 82 292
24573 -0.15653473140207225 3.221842114783938 3.2895694530564832 125 117 98 1.2910668435413277 47 348 48 178
19486 -0.48993439752903678 -3.2742935420101094 2.2604133976902983 152 180 181 1.6213244448517841 72 70 81 334 83 93 82 212
19483 0.24860589640325406 -3.1186137048062901 2.1861359441077024 126 143 153 0.18297903930395831 83 27 82 192
19481 -2.0548916458456157 -4.2189838203372547 2.2917240544155582 150 152 137 1.3328186570458238 81 185 82 96 80 202
19480 0.37730099476963097 -3.4077026896031199 2.1138282894117371 154 161 162 0.73559813795311835 81 219 82 58 73 74
19477 -0.60017376363954966 -3.9876028613421002 2.1757929833333556 138 151 160 0.74278208734070117 81 172 82 32
24563 -1.1704443764243186 2.905976325387484 3.3840648080405553 106 93 80 1.5043092127093691 47 240 48 111 45 538 46 439
4017 -0.16771843977221515 -2.2686292737981839 2.3779982546392739 137 140 123 1.0187746369189674 88 395 86 329 85 285 72 513 155 455 98 161 142 517 87 324 76 526 157 111 64 765
14290 2.1484980465607793 -4.3581675850439643 1.6918400829257407 130 130 130 1.248354814391937 76 129 53 422 42 576 154 633 143 747 132 771 121 731 110 688 75 667
19476 -0.4860337137158961 -4.0393035036343719 2.1237713775344487 166 160 158 0.30497495841003019 81 157 82 15
19474 -0.64575348180464032 -4.2312213010695565 2.1335815195487946 140 143 148 0.81987266106594281 81 127 82 0
19473 -1.1253405610078462 -0.579697615857375 2.747702723859855 129 100 77 1.2201700881718136 71 668 84 637
19472 -5.8716394797559035 0.38510929971405905 3.1390894187689451 111 116 108 1.4962475942596178 83 503 84 541 82 569 82 572
19470 -7.3653837980955084 -0.42127513260029381 3.2793828438097496 120 123 115 1.6085267148152764 84 438 81 630 83 417 82 506 82 507 80 480 81 632 80 482
19469 0.4186483451270212 -2.5116871201792805 2.2526689732928018 54 53 44 2.2541446331216233 72 405 73 603 73 600 84 94 74 985 81 647 85 108 83 202
19467 -7.2488178851448524 0.76657087438878546 3.2018064334705922 110 121 113 1.4960860649188594 81 699 83 501 84 540 81 698 83 500 82 555 82 561
24553 -1.2338622125085683 2.6162599001192905 3.3508963594102821 86 89 86 0.96605942624418184 47 202 48 61 45 471 46 339
4007 -1.2384660790256055 -0.15975777429929894 2.8837458159286466 95 116 62 1.6739652255911532 89 1081 88 934 86 959 95 762 96 790 94 884 93 849 97 754 100 1234 89 1080 91 538 88 927 90 669 92 411 85 985
14280 2.1156796254008579 -4.5556442877414183 1.6719408947837653 120 120 118 0.65514444006578942 64 160 53 355 42 485 154 522 143 629 132 657 121 616 110 571 75 568
19466 -0.90199492601329256 -0.87715768122062709 2.7037508344436856 107 114 122 1.35716679344889 69 179 68 111 84 573 16 515 6 36 17 443 96 512 95 505 94 614 93 579 97 537 99 830 100 1004 97 531 95 499 102 1332 102 1336 101 1207 89 858 91 382 88 700 90 483 92 273 86 719 15 629 18 106 34 72 4 620 32 605 85 662 71 620 156 903 157 603 158 442 159 247 160 110 161 0 69 181 70 287 68 113
19463 -8.1462022831917835 -1.7257288032306581 3.3105136579099637 101 111 102 1.680400448157243 79 700 81 518 84 325 79 704 81 520 83 373 82 428 82 431 80 354 80 355
19462 -1.2836156497054991 -0.24566046137460842 2.862850712127432 84 101 60 0.55178674293242014 72 1016 84 711
19461 -1.5897392048897678 -0.20223361031394205 2.9288565972281804 0 0 0 1.9444437253222517 70 405 72 978
19459 -1.1783804304221002 -0.5272297943544727 2.8125107200408337 96 84 53 0.049144008504173428 72 956 84 646
19457 -6.9495306331880355 1.4053141208710951 3.1218357631581357 108 114 111 0.95129800473560977 83 586 84 611 82 619
24541 0.13791577248641354 2.2773435808773081 3.1128388264306275 128 153 155 1.9502079363152616 48 1 45 502
14268 1.7846698054419032 -4.5256104723170338 1.7264490669035064 120 120 120 0.96325678741845966 76 41 53 324 42 439 154 484 143 609 121 606 110 556 75 560
19454 -5.1731388782952621 0.65121183810573391 3.3368732488905395 51 53 42 0.91316733452194987 83 567 84 594 82 621
19448 -4.7650020330371392 0.34315173257968512 3.0996992376068677 112 113 105 0.82720493624773561 84 576 82 613
19446 -5.2788075391221216 0.4811342043131035 3.1491912389879988 137 151 149 1.1616413343424323 83 527 84 571 82 604
24531 0.25157065602758388 2.2069858475239377 3.0784671232491392 146 147 150 1.8812029617646331 61 160 60 21 47 137 47 138 60 18 62 410 61 162 45 491 46 303 46 305
14258 -0.540590303873142 -3.6381428908783433 2.2007749784186674 175 175 175 1.8096684904431846 64 60 53 284 42 518 132 1080
19444 -0.97901430898152031 -0.88189642159369341 2.7703856302042511 0 0 0 1.7540648106638992 71 607 72 868
24530 0.13760468183860433 2.1920917172072443 3.0854387237372758 102 111 108 1.649887071199972 62 391 61 154 60 20 47 128 61 156 130 256 45 475 44 800 46 289 47 132 60 22
19443 -1.1371550600811635 -0.92877019174078623 2.6839828028978676 0 0 0 2.1732630641354129 71 559 83 577
24528 -1.3160628884862269 3.5927851198745633 3.523664608315292 83 91 92 1.5053859142385722 54 82 52 63 50 111 49 174 47 336 59 270 60 370 48 201 46 605 47 334
19441 -0.61398411499671446 -1.0857201417453664 2.6205681348870162 81 91 91 0.67943268110630528 70 256 73 912 84 535
