# 3D point list with one line of data per point:
#   POINT3D_ID, X, Y, Z, R, G, B, ERROR, TRACK[] as (IMAGE_ID, POINT2D_IDX)
# Number of points: 254, mean track length: 9.8946464357285997
22107 -0.73745393815529015 -4.1912387271543743 2.5422909472812041 90 96 82 1.012233265421919 210 216 196 223 209 391 93 192 94 231 91 92 208 543 204 674 205 787 207 733 203 554 198 571 202 709 199 710 200 753 201 652 96 441 95 310 99 603 100 616 98 480 80 662 105 745
22111 -0.88374043270625491 -4.1649482288637758 2.5208364765727165 106 73 41 1.4163462622471401 210 237 196 228 197 427 205 815 204 702 207 765 203 579 198 604 202 741 200 801 201 676
22114 0.13188582679671218 -4.3136397398855868 2.6549519598863895 148 143 130 1.2941625055918433 210 142 196 232 209 312 208 464 197 344 204 563 205 668 207 613 203 474 198 454 202 609 199 539 200 569 200 574 96 379
22117 -0.13617513085577809 -4.2588450469095971 2.6202642409119536 102 95 76 0.93287708530148894 210 184 196 236 209 354 93 99 94 136 208 508 197 369 204 617 205 723 207 672 203 508 198 492 202 642 199 589 200 625 201 565 97 473 96 413 99 621 95 264 100 663 98 466 105 838 106 774 104 828 107 444 102 599 101 643 108 134
22122 -0.065399029782751014 -4.2615108555046692 2.6312658461330445 94 83 63 1.8601734421394738 210 186 196 242 209 356 93 94 94 122 94 123 93 90 208 507 197 370 197 374 205 718 203 509 198 494 202 644 199 582 200 621 97 484 95 261 106 800 105 873 107 453 104 860 102 611
22128 -0.20234195917057929 -4.2324295416617819 2.612868910433725 114 104 94 0.77464018816372349 210 198 196 251 209 375 93 129 94 161 208 527 197 390 204 642 205 753 207 698 203 525 198 522 202 674 199 618 200 661 201 596 97 499 96 430 99 635 95 282 100 673 98 487 105 847 106 782 104 836 107 467 102 605 101 658 108 161
22129 0.11775901479787879 -4.2818431338672562 2.6544075635534434 85 70 47 1.8766686005131681 194 9 210 170 196 253 209 338 208 490 197 366 204 592 204 593 205 700 205 701 207 649 207 650 203 496 198 473 202 624 199 559 200 591 200 589 201 546 96 401 95 252 106 855 105 931
22131 -0.24325210275828313 -4.2221150047620011 2.6054907809292258 149 156 149 1.0571670600839267 210 206 196 255 209 387 93 136 94 180 91 2 208 535 197 398 204 652 205 763 207 711 203 541 198 530 202 678 199 637 200 680 201 607 97 506 96 437 99 640 95 286 100 678 98 491 105 844 106 776 104 830 107 477 102 604 101 657 108 175 80 645 173 279 195 14 162 425 184 132
22144 -0.24913197806262005 -4.1892357322481688 2.6087992955540416 148 131 77 0.79660036169556658 194 1 196 283 209 416 204 686 205 796 207 743 203 572 97 532 106 823 105 884 104 868 107 519
22145 -0.078505596222466459 -4.2135565837583657 2.6338764612795882 134 110 76 1.5335113758285579 196 284 209 398 94 181 197 419 204 665 205 779 203 547 97 528 99 671 96 446 95 296 95 291 100 722 98 511 105 930 106 863 104 923 107 515 102 670 108 159
22146 -0.93411440721510752 -4.0921774237767456 2.5185363771555225 141 88 76 0.97034891451170668 210 295 196 285 209 479 197 504 204 790 205 894 207 851 198 681 202 805 199 831 200 890 201 756 80 734
22150 -1.0424578135987224 -4.0713827175054567 2.5035334800402178 138 118 111 1.0558596904195989 210 321 196 295 208 659 197 531 204 814 205 911 207 871 198 706 202 823 199 862 200 919 201 774 97 564 96 514 99 657 100 659 98 551 105 762 106 700 104 735 101 624
22151 -0.71689382700544557 -4.1161204099860829 2.5485160723613842 109 99 100 0.79884365055841566 210 291 196 296 197 487 204 754 205 866 207 820 203 634 198 644 199 792 200 834 99 668 100 683 98 544
22154 -0.86475351968676339 -4.0949888551672062 2.5276337810923288 146 122 96 0.98767255337428717 210 296 196 301 209 480 208 640 197 506 204 789 205 889 207 849 198 672 199 821 200 877 99 662
22155 -0.030846807008112126 -4.2045556758189795 2.6373473585245941 154 130 75 0.81924000402217667 194 68 196 305 209 411 93 137 94 187 208 555 197 428 204 678 205 789 207 734 203 560 97 538 96 460 95 298 100 746 105 968 106 906 104 962 107 542 102 714 108 162
22159 -0.96630664924736054 -4.0696342793839833 2.5176110383944597 118 82 58 1.9080296846645999 210 335 196 314 209 508 197 533 203 684 198 703 97 573 98 560 108 342
22161 -0.57838187712090761 -4.1148846807690962 2.5659143920032292 148 152 151 1.2040541852418329 210 293 196 325 209 467 208 622 208 618 197 492 204 767 205 877 207 822 207 828 203 640 198 638 199 780 200 822 201 716 80 703
22162 -0.59607728202658039 -4.1046815263640415 2.5561477650930562 120 120 120 1.8632701858428957 210 311 196 327 204 788 205 885 207 846 203 657 198 645 202 788 201 727
22166 -0.61087144684454897 -4.0939853926158092 2.5612499778966176 157 146 121 1.1624665020263374 210 326 211 12 196 346 209 498 197 516 204 799 205 903 207 856 203 665 198 655 199 800 200 847 201 739 80 716 184 128
22167 0.11158018060543505 -4.1648832198495409 2.6572404017726945 74 47 38 1.2936005807299191 210 285 209 449 208 596 197 471 196 356 204 735 205 839 207 789 203 609 204 728 202 728 199 671 200 704 201 650 96 503 95 330 105 1086 106 1020 104 1075 203 614
22170 -0.85420960465404594 -4.0265477709791515 2.5346726784562108 96 104 106 1.2185517345287888 194 23 196 375 197 581
22171 -0.82100138972116421 -4.0228779626570823 2.536350047565028 133 145 145 1.0033721253042136 194 55 196 381 197 583 204 875 205 967 203 734 198 732
22178 -0.7486292839905927 -4.0030487183632282 2.5587887672777607 148 150 149 1.7193134178070844 196 418 209 584 93 351 94 390
22179 -0.1705598561621724 -4.0564672595885893 2.6242660953223158 89 65 39 0.71854684870356333 194 191 196 422 204 856 205 950 207 901 200 824 199 783 201 754 97 658 99 794 95 410 100 844 98 639 105 1078 106 1012 104 1062 107 693 102 835 101 862
22183 -0.25262362329502736 -4.0138456877042001 2.6146365120950148 90 81 50 1.5144321962849849 211 116 196 453 204 897 205 991 207 940 203 754 97 681 99 809 100 856 98 656 98 662 105 1083 106 1027 104 1067 107 718 102 851 101 878
22197 -0.48158625656726772 -3.5955169696877665 2.4515770460289499 150 140 115 0.63623306084907827 194 311 196 550
22228 -0.87494907655085929 -3.4724419105394659 2.5539596383662766 76 84 78 1.7248605080244352 193 11 211 235 194 328 212 9 211 234 210 534 210 535 196 575 193 13 194 329 196 577 209 682 209 683 93 487 94 523 208 823 197 764 197 767 204 1032 204 1034 205 1142 205 1143 207 1069 203 862 198 890 202 997 199 1024 201 917 97 785 97 786 99 938 100 1014
22238 -0.61931437671299427 -3.3300355259725474 2.5900621658403558 139 145 140 1.6524669284354039 212 106 193 111 211 329 194 428 212 113 210 629 196 660 194 423 210 625 209 777 94 589 93 557 208 910 197 840 197 849 204 1133 205 1237 203 961 198 956 202 1084 95 590
22240 -0.10455365900898146 -4.1794275809908141 2.6267376643979023 121 86 64 1.0864817144545038 194 76 196 316 208 575 97 557 99 704 100 758 98 546 105 970 106 905 104 959 102 718 101 753
22241 -0.88636213519784901 -4.0466478478038086 2.5237978768879024 103 84 81 2.3838806074386141 209 541 211 40 91 207 205 952 204 855 207 905 199 863 200 922 97 598 96 541 95 395 101 668 102 598
22243 -1.0021467221929423 -3.9630473185518174 2.5151720099735155 123 125 122 1.6438434115167806 211 115 196 439 197 644 204 937 205 1027 207 976 203 781 198 779 199 915 200 979 201 835 99 750 98 631 105 859
22252 -1.0653975696875073 -4.4171138278789712 2.4903461379429399 118 137 135 1.1401097802255296 210 33 209 213 208 375 197 239 204 467 205 571 207 519 198 388 203 399 202 539 200 560 201 478 97 341 99 453 98 348 101 414
22253 -0.92982239235575559 -4.4179128462572947 2.5081266935370037 154 125 69 1.9694758069037259 196 67 209 214 208 377 197 244 204 465 205 575 207 515 198 392 202 538 199 510 200 551 200 555 201 483 97 350 99 459 100 476 100 480 98 353 98 356 105 573 106 521 106 523 104 554 104 559 107 321 102 366
22256 -1.0735829048236043 -4.3931712959048852 2.489705024328432 64 69 65 1.1644001154294965 210 41 209 224 93 70 94 88 208 386 197 247 204 480 205 583 207 528 203 411 198 400 202 551 199 528 200 572 201 491 97 353 96 331 99 462 95 207 100 479 98 363 105 572 106 520 104 553 107 328 102 372 101 421 108 156 109 50 80 541 173 95 162 253
22257 -1.1541443987309739 -4.3810848000995675 2.4728543871618989 137 156 137 1.306374931174983 210 42 209 225 208 391 205 588 198 408 199 542 202 556 200 587 96 335 201 497 105 571 106 519 104 552 101 422
22259 -1.1261333045185555 -4.3773456595754361 2.4811599728147864 63 83 83 1.2420773055455612 210 49 209 230 93 85 94 99 91 0 208 395 204 485 205 589 207 535 203 417 198 412 199 543 200 585 201 501 96 342 99 467 100 483 98 370 105 575 106 525 104 556 107 336 101 424 202 562
22260 -1.0891089901841045 -4.3731693987012754 2.4876550986109449 70 79 74 1.0877915192945584 210 51 209 233 197 251 204 490 205 595 207 540 203 420 198 413 202 566 199 544 200 592 201 503 99 473 100 485 105 579 101 427 106 527
22261 -0.70513796011209906 -4.3782849507727839 2.5400406822326147 113 106 98 1.0433530733061853 196 109 209 241 208 401 197 268 204 492 205 596 207 542 198 415 202 564 199 524 200 565 201 496 99 484 80 563 162 309
22262 -1.1919575859378722 -4.3487166399857973 2.4638877681655336 130 135 131 1.1815249257958669 210 57 209 242 93 106 94 117 91 23 208 408 205 605 207 550 202 576 199 569 201 515 97 374 99 480 95 232 96 349 100 490 98 376 105 581 106 529 104 561 107 341 102 378 101 434 108 190 109 79 80 565 173 90 162 266
22266 -1.1236933022052724 -4.3325719468923145 2.4873744886261311 85 95 70 1.9076730798504435 210 81 209 253 91 31 208 419 204 511 207 570 203 436 202 582 199 585 201 528 201 525 99 482 99 489
22268 -1.152457206160354 -4.3268878572600187 2.4749151895200621 86 97 74 1.7403024640942275 209 256 93 121 94 137 91 35 208 422 205 629 207 573 199 594 200 652 201 536 201 535 97 386 96 358 99 488 95 240 100 502 98 384 96 357 104 575 107 356 101 445 162 280 173 117
22269 -1.1355947391991232 -4.3266668859239754 2.5239141610879399 99 109 85 0.86939667465746751 210 93 204 515
22271 -1.1931817638495268 -4.316142021530978 2.4657820468278215 95 109 102 1.0008927212151488 210 80 209 263 94 143 91 47 208 434 205 641 207 584 199 616 201 543 99 493 100 504 98 386 107 364
22277 -0.017447594049772162 -4.3442670907019565 2.638417451548948 114 88 67 1.4163740855909532 210 111 209 279 93 35 94 62 197 315 201 507
22278 -0.050037247822879674 -4.3387370413515702 2.6308512288650165 105 82 64 1.2940390251020939 196 192 210 110 209 282 93 37 94 66 208 444 197 316 204 532 205 642 203 455 199 527 96 362 99 559 95 219 100 602 105 789 106 707 104 765 107 385 102 533
22280 -1.1755576733420527 -4.2838487586526597 2.4702598780288523 87 96 73 1.1183714749446305 210 99 209 286 91 69 208 453 205 666 207 614 202 628 199 662 200 708 201 566 97 410 99 507 100 519 98 407 105 604 106 558 104 591 107 382
22281 -1.1555579780343699 -4.2800847250067733 2.4749770101068203 109 134 139 0.8228133247600723 210 105 209 290 208 458 205 674 207 620 198 489 199 663 200 710 201 571 97 413 99 510 100 521 98 410 106 560 104 595 102 407 101 463
22283 -0.97422769666786346 -4.2848077294585751 2.5131695395352618 116 116 104 1.5831254446289984 196 127 209 298 94 164 197 310 204 559 205 671 207 619 198 479 93 143
22284 -0.64437618229278493 -4.2896497914256333 2.5442395546684704 101 103 100 1.3691889063444187 196 154 210 120 209 301 208 463 197 319 205 672 198 475 202 623 199 596 200 641
22285 -1.196242303480799 -4.2579697022590759 2.4661655183816857 140 142 137 1.4892007348379301 210 114 209 306 93 167 94 197 91 88 208 473 205 697 207 648 202 651 199 690 201 600 97 421 97 425 99 519 99 522 95 277 100 526 98 422 106 562 205 687 107 391 80 625 101 469
22287 0.031626784809891992 -4.3086222412768693 2.6421937677631226 104 86 54 1.2706888058242134 210 145 209 311 208 465 204 562 205 673 207 616 97 453 202 612 105 848 106 775 104 837 107 412
22290 -0.87834634957448843 -4.2669465358637426 2.5166628522715317 80 58 37 1.8894553460836105 196 143 210 134 209 316 93 144 93 145 94 166 91 48 208 475 197 324 204 579 204 580 205 691 207 645 198 501 202 640 199 650 201 574 201 575 97 433 96 392 99 536 95 268 100 549 98 431 102 436 105 651 101 501 108 207 80 619 173 177 162 346
22295 -1.0207125160514219 -4.251208416559245 2.4957532532614541 104 113 108 0.67449262768885232 196 137 209 325
22297 -1.1412418799191335 -4.2273715778420655 2.4730222201964454 93 99 65 1.8888028617632331 210 152 209 339 205 738 207 685 198 551 202 681 199 716 199 720 200 760 200 765 201 629 201 630 99 544
22300 0.14816525611426021 -4.2658518829136716 2.6592558192002955 101 94 80 0.98212859965029631 194 44 209 357 204 615 205 724 207 667 203 514 202 637 200 601 104 969 105 981
22301 0.17148081272680793 -4.2655695251139916 2.661636888464336 127 129 124 0.88764925569599651 210 192 209 360 204 619 205 725 207 668 203 515
22302 -0.16882007319364872 -4.2504532446117702 2.6171187071971245 123 103 87 1.2896241537552282 210 191 209 362 94 147 208 513 204 627 205 735 207 683 203 521 202 654 199 602 99 624 100 661 98 470 106 765 102 597
22307 -1.0945471155060449 -4.2022116089650545 2.488408069065986 107 112 112 1.1055306131665814 210 182 209 371 208 531 197 367 205 769 198 575 200 790 201 654
22308 0.17187500083731827 -4.2426615463735065 2.6623718340314761 64 66 56 1.0999935895905881 210 212 209 378 208 529 204 639 205 751 207 695 105 1023 104 1006 203 533
22317 -1.0738142960579522 -4.1491402194649956 2.4959754268723287 112 86 82 1.234295379881676 210 241 209 426 197 435 204 720 205 831 207 783 198 626 203 589 202 758 200 845 201 700 100 598
22326 0.10902968943608987 -4.133433925996858 2.6594698851730438 56 50 50 1.8764209388482032 196 379 211 20 209 484 208 627 197 496 204 761 204 770 205 872 207 811 207 821 203 638 198 586 202 753 202 754 201 672 96 529 95 352 209 474 208 620
22327 -0.76050062676661667 -4.0889315330679077 2.5429288056902899 81 84 92 0.94819503156760665 210 325 93 278 209 497 196 326 94 328 208 656 197 515 204 801 205 899 207 857 203 667 198 673 202 804 199 816 200 865 201 750 97 570 96 518 99 685 95 377 100 701 98 561 101 664 162 462 173 277
22328 -1.0689192411194781 -4.0701974845792179 2.4976293674610694 115 117 114 1.5616073748691204 210 320 209 502 93 306 94 344 91 205 208 665 197 528 197 529 204 815 205 910 207 870 198 709 198 710 202 822 199 865 200 920 201 777 97 563 96 513 99 656 100 656 98 550 105 757 106 694 104 731 102 546 101 622 101 626 104 737 80 755 162 455 173 236 184 78
22336 0.081385940162998813 -3.9907556577798622 2.6602343033724982 117 121 98 1.1182602263900376 210 443 209 608 94 394 208 752 204 933 205 1020 207 968 203 778 202 857 96 632 95 455
22338 -0.053111412893206568 -3.9377829942466502 2.6447869595928348 150 127 107 1.0703588748226645 211 168 209 633 93 382 94 435 91 221 208 778 204 963 205 1054 207 1001 203 806 99 855 95 481
22342 -0.16316385395219055 -3.8830973790606262 2.6287578439606372 134 133 103 1.1465883903407894 194 280 196 521 209 651 93 422 94 471 91 260 197 692 204 989 205 1081 207 1025 203 827 198 778 202 914 199 900 200 957 97 742 99 864 95 497 100 950 98 706 101 1006 80 814 173 428 162 581
22346 -0.79964267118729637 -3.3511219365575364 2.5559603826631627 62 114 139 1.0346593345997412 210 610 209 761 204 1114 205 1225 207 1155 203 944
22348 -0.27338001676953227 -3.2140673144400544 2.6372455020693137 124 101 87 1.8244705137670394 196 727 209 873 193 268 93 659 94 708 94 711 91 517 208 1004 198 975 95 687 96 829 108 929 90 236 109 588 110 201
22351 -0.24052384604952176 -3.1255199621039442 2.6415370230293185 64 65 59 1.1907228992769885 211 479 209 912 192 45 91 573 89 264
22352 -0.20767521714848181 -3.1144198369372704 2.6488110949951369 98 113 106 0.90496851467027462 211 483 209 917 93 712 94 766 91 576
22353 -0.011345511410726906 -3.0360893587311706 2.6681358009444684 139 157 159 1.3387719662680571 211 515 209 948 192 95 94 802 91 616 208 1077
22354 -0.06841121423591931 -2.9357940038123944 2.6575323353680149 51 62 62 1.6809668899764441 210 815 209 963 91 628 208 1094 89 311 90 330
22358 0.02553258106217551 -2.6033903397597791 2.6404598084456237 130 112 43 1.0154568305107003 194 685 196 877 197 1061
22360 -1.1570216651211929 -2.4609756276167327 2.5352540029031854 181 183 182 1.5624560923849853 210 937 93 797 94 861 91 678 95 815 95 818 90 373
22366 -0.018360724227509499 -3.8720565927754547 2.6481095712101048 153 136 128 1.8533118892801601 211 187 194 289 210 498 196 524 209 653 194 291 210 500 209 654 93 425 94 477 94 479 91 258 93 426 208 796 208 798 197 693 204 992 205 1087 207 1028 203 831 198 776 202 915 202 916 199 893 200 952 201 845 97 756 97 757 96 676 96 677 95 503 100 985 100 986 107 883 107 885 102 1042 102 1043
22368 -0.27519784422744537 -3.1868544623839661 2.6375281287774239 99 89 70 1.0490734856541348 196 752 210 741 211 450 212 239 209 883 93 673 193 283 94 721 194 551 91 530 208 1020 197 930 108 956 90 252
22371 -1.0593020574811669 -4.4591552443451121 2.4880919516581423 140 152 148 1.1998974294030851 210 18 209 200 93 41 94 56 208 365 197 221 204 453 205 556 207 501 203 391 198 373 202 521 199 495 200 536 201 464 97 335 99 441 100 457 98 341 105 546 106 495 104 531 107 307 102 348 101 399 109 33 80 496 173 75 162 220
22374 0.049145186941544725 -3.7009896701580431 2.6671006347449615 174 176 175 1.6116208732175907 209 666 94 500 204 1006 205 1099 207 1040 97 783 107 999
22375 -0.19095413838785028 -3.1363376590886216 2.653602369273854 96 111 108 0.9034712052524716 209 909 94 758 91 568
22376 -0.87298266228932098 -4.60995267869834 2.5086752763634861 160 158 146 0.96765493584026707 209 178 93 9 94 28 208 339 197 191 204 420 205 524 207 467 203 358 198 336 202 479 199 453 200 502 201 428 97 318 96 297 99 408 95 171 100 431 98 310 106 456 104 491 102 317 107 286 101 363 80 431 173 55 162 177
22378 -0.88122983381952136 -4.5535833383980187 2.5041065814035428 158 118 94 1.4902043079160416 209 182 93 14 208 352 197 203 204 434 205 539 207 481 203 372 198 355 202 497 199 468 200 515 201 444 99 424 100 436 102 322
22379 0.045746594445920968 -4.3644462389739234 2.6414604606003236 76 57 41 1.4966815488986731 209 271 93 29 205 615 207 560 104 769 94 51 106 711 107 373 102 532
22380 0.046807633005422171 -4.3017722063831378 2.6453500209591887 121 97 59 1.545628463607583 209 320 93 60 207 626 197 347 203 480 198 460 199 545 200 581 201 534 95 238 107 423
22383 -0.011202245820432376 -4.2380505935042541 2.6379103560139909 130 94 70 1.4367160043789688 210 200 93 105 94 144 208 524 97 508 100 718 106 859 107 492
22385 -0.95804876095662461 -4.3217882308122224 2.5059911839879718 134 102 81 1.2665380892504574 209 268 93 109 94 126 91 21 208 437 204 524 97 396 202 598
22387 -0.89820832116247695 -4.3168105773894059 2.512864741732888 80 80 80 1.5460886936252993 209 272 94 128 197 292 207 589 202 606 202 602 200 639 207 591 201 532 97 399 96 364 99 508 95 242 98 397 101 465 162 318 184 40
22388 -0.83243101576680889 -4.2924454596040844 2.5227726299006097 97 84 79 1.0151301871904899 209 294 93 125 94 149 197 311 203 469 198 474 199 609 200 657 97 414 99 525
22389 -1.0976916948952615 -4.3168810539880011 2.4866085026928975 104 124 133 0.01154180722300855 210 89 93 126
22390 -1.0366514316157189 -4.3006748510699921 2.4970572918687699 106 123 130 1.4440381328700784 210 98 204 544 197 295 198 467 95 250
22393 -0.73087769505789801 -4.2053908322057261 2.5393331170421618 95 89 91 1.431538134589103 93 181 94 213 209 386 197 388 203 545 202 695 200 738 201 639 97 482 96 432 95 300 98 468
22394 -0.83941146143236001 -4.2073537449556566 2.5237030776870144 67 69 54 1.2856517423467586 209 374 93 183 197 382 204 653 207 717
22398 -0.084936354023516278 -4.0818713951065018 2.6377646767496379 98 72 39 1.7406478943245969 210 371 93 257 94 309 208 682 204 828 95 389 200 796
22400 -0.0085824711819717184 -4.0436834679496458 2.6445429471722415 96 84 68 0.76566419079162407 210 403 93 289 94 346 97 682 203 733 96 593 108 321
22401 0.0096802679316407274 -4.0345363538645342 2.649156396960787 92 76 53 1.3502622473419896 209 573 93 293 94 355 91 134 204 885 205 975 207 925 203 739 97 686 95 428 100 895 107 749 106 1107 108 327
22403 -1.0558469315750936 -4.0803029473535322 2.4997033082608202 81 91 93 1.0278935468586778 209 496 210 305 93 298 94 337 91 201 208 651 197 521 204 808 205 906 207 863 203 670 198 701 202 813 199 856 200 912 201 769 97 556 96 509 99 650 95 380 100 652 98 540 105 750 106 687 104 723 107 525 102 541 101 608 108 340
22404 -0.71783409890077443 -4.0612784588539919 2.5497654569299009 66 72 70 1.0792607722583434 209 522 93 301 94 345 208 679 194 24 197 549 196 360 198 694 201 772 97 596 96 546 95 394 100 723 98 587
22405 -0.97107176490474023 -4.0397513866064916 2.52030760345869 107 92 84 1.4955866598791148 209 539 211 47 93 326 91 217 208 701 200 931 201 797 97 592 99 698 100 704 98 579 106 741 101 663
22410 -0.090832367183699664 -3.8731425128064547 2.639552338280903 105 97 77 1.3228866980941736 210 495 93 424 94 475 204 991 205 1086 207 1027 203 830 202 917 199 897 200 955 201 849 97 754 98 720 102 1014 101 1029
22412 -0.027760570469571623 -3.4232197653201113 2.663210995032169 99 113 113 1.2145278426225574 209 706 211 272 93 534 94 574 91 371 204 1058 193 108 207 1089 205 1165 97 880 203 885 200 1011 194 368 108 816 90 97 109 365
22413 -0.061734871089237239 -3.4171730305354973 2.6553673567303098 137 152 147 1.3951596889025495 211 275 93 537 94 579 204 1062 207 1093 205 1168 201 897 97 877 90 98
22415 -0.81363482721671987 -3.2759681583208269 2.5486932290498112 65 102 123 1.1577762606120885 93 577 208 955
22419 -0.17211148146920874 -3.2036356927790122 2.626989942637159 83 98 101 1.0919398692092748 211 436 91 527
22420 0.0294425056298852 -3.0557833528836196 2.6791623687507218 134 152 154 1.2912173932035571 209 946 93 740 94 799 91 612 208 1073 197 974 198 1039 90 321
22422 -0.97175694446835648 -2.5793199167409941 2.5711960489253216 90 77 35 1.0901091503203071 210 870 93 783 94 845 94 846 91 664 95 797 88 54 90 360
22428 -0.11551443967713934 -3.3329095891804923 2.6551820044151646 78 86 87 1.6770643526602063 93 601 212 127 193 185 211 342 194 435 210 635 194 430 196 625 209 781 93 595 94 639 94 643 91 430 91 434 208 911 197 782 204 1136 204 1139 205 1239 207 1165 203 959 202 1042 199 981 200 1041 97 919 96 799 95 646 201 932 89 91 90 150 110 80 89 84
22429 -1.00816110221846 -4.1184917738980582 2.5086437795393248 100 73 47 1.4342304852207746 196 244 209 453 93 271 210 269 196 243 209 455 94 304 91 173 208 608 208 609 197 472 204 747 205 861 207 808 203 622 198 658 202 782 199 815 200 870 201 731 97 530 96 485 99 630 95 356 100 632 98 512 202 784 106 676 105 743 104 713 107 498 102 521 101 584 108 322 109 144 80 710 162 432 173 223 184 72
22432 0.020369760329334751 -3.9939058076333867 2.6523584919862366 80 83 76 1.5286922453595 211 142 209 610 93 333 211 139 194 253 210 442 196 485 209 606 94 392 204 925 205 1018 205 1025 97 715 96 628 100 918 107 787 106 1143 108 361
22434 -1.1046388381607963 -2.5577836728124566 2.6305466722551754 0 0 0 2.8714669275700451 210 876 211 603
22436 -0.055441424737809906 -2.5236796689756598 2.6839937518591328 176 178 175 1.5766451806242836 210 894 211 632 90 443 91 763
22439 -0.50214868613705088 -4.620870455069281 2.3864307448422628 178 191 184 1.7825922493893713 209 159 197 192 94 12 96 281 97 311
22440 -0.50654121560033416 -4.6124296941360123 2.3949662956396716 153 178 185 1.5640331539780936 209 163 94 16
22444 -0.51620934819999054 -4.5629838023569738 2.3855132247816075 143 150 137 1.3462545105603019 93 2 209 176 94 24 208 344 197 207 196 9 204 430 205 536 207 479 203 369 198 353 196 8 202 492 199 466 200 512 201 442 97 323 96 301 99 425 95 169 100 443 98 320 101 376 80 458
22445 0.021910752622067424 -4.4102301602388359 2.6415299665307224 145 93 82 1.1356493449405933 93 18 94 39 208 400 196 156
22448 0.0065811185993947816 -4.3898772319076222 2.6799489692269693 91 74 56 0.2793320158313396 93 24 94 49
22452 0.058311311201254351 -4.3252873633990951 2.6445086410171963 91 80 62 1.1873707247106793 209 302 94 72 208 457 197 337 204 552 205 656 207 602 203 464 198 444 202 597 199 535 200 567 201 517 96 372 95 227 106 757 104 825
22453 0.084050701185083163 -4.2999143104662387 2.6446301538993247 68 65 50 1.8497245349824967 210 148 208 472 204 577 205 683 207 632 203 481 202 616 199 549 200 584 201 538 95 235 95 239 105 880
22455 0.08947509063181322 -4.2941403978647577 2.6504218567486242 99 88 69 1.8859368752687515 209 328 210 153 94 91 204 582 96 393 95 244
22459 -0.024180877044782376 -4.2252753977957767 2.6369348387269915 132 97 75 1.5388241736871833 210 219 94 157 204 654 205 761 100 727 203 542 105 948 106 875 104 939 107 510 108 139
22462 -0.95399499261974097 -4.2644267807736274 2.5096919610830923 125 114 96 0.77949875607103336 93 156 94 183
22464 -0.96902467165965078 -4.250937988856931 2.508345026085689 84 81 80 1.0838349684424577 209 329 210 144 94 194 91 72 197 336 204 595 199 675
22465 -0.62566488450075075 -4.2093058944444186 2.5488083691519283 147 143 108 0.58493409115771233 93 172 94 209 91 63 95 295
22468 -0.61487291368490704 -4.1570864231203108 2.5389251239453929 130 123 95 0.72158435597500137 93 210 94 242 91 99 95 332
22469 -0.54883265236048473 -4.1572082346264425 2.5707191666916263 125 119 103 1.4998292993442499 93 202 94 243 91 97 91 102 95 335 98 519
22488 0.033635527839172195 -3.9459862701452062 2.6592883930604754 89 77 77 1.0104308221311784 93 379 94 432 204 960
22490 -0.14302036228999429 -3.9233802218304756 2.634024678702767 100 105 98 0.78099496411378855 93 394 94 448 91 236 204 969 205 1061 100 931 107 811
22491 -0.16160403448736016 -3.9283887314789561 2.7532178786430941 125 113 97 0.06963159588599388 93 398 94 450
22492 -0.10242154949763212 -3.908356993827705 2.6398226401946712 136 130 114 0.99914888487794495 93 405 94 455 204 973 205 1066 207 1014 205 1071 203 816 202 901 199 879 97 734 96 663 99 861 100 949 95 490 98 703 107 836 101 1011
22493 -0.10919372170120559 -3.894737189601682 2.6390402153884103 124 127 113 0.90636562381309349 93 416 94 463 204 982 97 741 96 670 99 868 98 707 107 843 102 992 108 459
22494 -0.088037368205512792 -3.891269273922676 2.6393138930520417 112 105 89 0.67556265782722935 93 417 94 466 204 985 205 1079 207 1022 97 745 199 890 99 874 98 715
22495 -0.079913379555340891 -3.8897881377993735 2.6429729048112467 132 121 101 0.40793441561204818 93 418 94 467 108 465
22497 -0.43562380446260224 -3.6689744137582134 2.4553211388957008 123 124 118 1.5997018384234563 93 455 94 501 96 693 95 529 95 527 98 766 99 930 93 452 91 310 102 1063 107 925 90 65 90 66
22501 -0.45925106347192812 -3.5827866498848304 2.4530005822032659 115 111 84 1.7476578938682223 93 469 94 514 97 795 96 699 99 960 98 788 101 1135 108 628
22502 -0.44807098156978981 -3.5156037927270547 2.4497682039843012 122 120 95 1.9671266214644163 93 486 94 525 91 340 97 818 96 714 95 547 90 80 90 81
22503 -0.49851289853298908 -3.3675162902326776 2.5281556874459121 105 103 90 0.97614514404146624 93 543 94 575 91 398 97 850 96 741 95 592 98 855 89 75
22504 -0.038764394102192644 -3.4126773397599761 2.6636839535500205 63 73 74 0.98871570521729901 93 540 94 583 97 886 90 101
22507 -0.42903160411831165 -3.3531715180449035 2.4293178620321725 122 121 101 1.2032507693674561 93 566 94 604 97 885
22509 0.018794344276206822 -3.376022819324346 2.6725575065312355 101 119 121 1.63983510246779 93 571 94 612 204 1094 210 604 212 97 207 1121 203 915 96 792 95 631 108 888
22510 -0.99421123924599675 -3.2300835755397492 2.5403820412274554 92 102 98 1.4380824437458757 93 592 94 623 91 472 97 841 96 740 95 613 98 836 107 1023 108 759 107 1026 89 222 109 539 109 544
22511 -0.621881231752624 -3.2743433150433963 2.5921352996709777 118 118 90 0.98803152529902227 93 594 94 628 91 451 95 621 89 175 90 191
22512 -0.40539570255484264 -3.2077524669803585 3.2019119123510409 65 81 80 1.025734558634237 93 608 94 637
22513 -0.030599966331664993 -3.3170497404219206 2.6658277593514694 71 84 84 0.75571806190505464 93 615 94 665 91 443 96 817 203 972
22514 -0.080330622351025283 -3.2543697348654583 2.6553865781578279 97 118 121 0.57393102223661085 93 654 94 705 91 502 89 164
22515 0.10527326474992389 -3.2673363325556766 2.6145543095069987 146 161 162 0.43076394601042745 93 663 94 722
22517 -0.029154620262645203 -3.2084176203822743 2.6642931003697905 66 84 84 0.8255078581826546 93 686 94 738 90 242
22518 -0.075018791188189757 -3.1987352226214658 2.665413913833401 48 64 64 1.4829257058873389 93 687 94 740 91 537 208 1011 197 883 199 1055 89 212 90 248
22522 0.10852708656598085 -3.0041111771209672 2.678402419885435 139 158 156 1.9941850107784775 93 748 94 810 208 1083
22523 0.00065269022951269394 -2.9077874333629592 2.6597922720205327 81 89 83 1.4702705614022022 93 766 94 828 91 639 208 1100
22526 0.074665503997488544 -2.9029724226592521 2.6631051312785576 78 102 104 1.3050578552006333 93 773 210 822 211 538 94 838 91 646 208 1101
22527 0.044888137611180476 -2.8749224210536002 2.6754179870397059 96 103 102 2.249421964653425 93 778 94 844 91 650 211 545 197 1029 208 1107 95 803 90 341
22530 -0.71225586917441586 -2.5848235842145058 2.6216087079757453 140 131 88 1.3383376800705988 93 793 94 857 95 817 94 859
22535 -0.59958350081983425 -2.5583855284461468 2.6118078037734334 156 152 118 1.5043818518574408 93 806 94 871 91 685 95 837
22544 -0.50623649605254628 -2.4697593826987596 2.6242104599108966 109 110 92 1.9173150611811123 93 855 94 910 91 734 93 851 87 60 88 114 90 417 90 421 89 444
22545 -0.50627963289299038 -2.4605156972521143 2.6304819077224035 86 88 68 2.0172650990616972 93 858 94 913 91 737 89 448 87 70 88 118 88 123 90 425 90 429 87 68
22548 0.089416042676282934 -2.6351658636324298 2.7052320210242948 142 142 125 0.43243841527464866 93 861 94 924
22552 0.066522285583625884 -4.2673930804912334 2.6495244688156561 108 86 61 1.6638930744647191 210 187 196 257 209 353 94 106 194 11 210 189 196 256 208 505 197 378 197 379 204 612 207 662 203 507 198 483 198 487 202 636 199 568 200 604 201 555 95 255 104 927 105 928
22553 -0.73656674550890966 -2.4581438242878759 2.6048482507316653 88 81 58 1.6223903111408973 209 1110 93 826 94 884 191 140 213 162 192 278 192 286 191 133 212 491 212 493 193 529 211 675 194 826 210 934 196 1032 209 1101 93 829 91 709 89 427 89 431 90 405 90 408 110 643 111 319 112 103
22554 -0.21523001096444513 -3.3056567519541713 2.6432997164721197 143 144 140 2.005903519720472 194 455 210 652 209 798 94 652 193 193 211 354 212 142 210 647 93 607 209 794 94 649 208 931 197 811 204 1154 198 903 199 1013 97 913 96 796 108 878
22555 -0.81951751351028435 -4.0022205704108433 2.5379619179574582 60 68 68 2.1047990817821316 93 352 209 578 94 395 91 230 197 603 197 607 204 903 205 995 207 941 203 752 202 865 198 748 199 885 200 948 100 757 101 725
22557 -0.047018917713013385 -4.233770409826124 2.6343285223208195 102 77 51 0.97537112356146538 210 208 93 113 94 155 194 13 196 267 209 381 93 110 208 532 197 395 204 644 205 757 207 701 198 518 202 672 199 611 200 642 201 587 97 509 99 652 100 715 105 921 106 849 104 913 107 491 102 663 108 136
22560 0.024895845421603474 -3.9082554255014492 2.6529622698941626 150 134 136 1.6134122787833163 210 485 209 642 93 404 94 456 211 177 194 282 210 484 196 517 209 644 93 401 210 490 208 789 208 791 197 669 204 978 205 1073 207 1015 203 819 198 756 202 899 199 871 200 924 201 833 97 749 96 671 95 495 100 974 107 862 107 868 102 1024 108 447
22563 -0.56541986022336765 -2.4909361028191221 2.6307304840538932 74 67 38 1.6598981655493625 93 835 94 891 90 407
22568 -0.0092415206310998942 -4.1060689512942803 2.641767424981301 127 99 53 1.0611152433503939 94 284 91 68 210 347 204 802 203 668 100 840 106 1034
22571 -0.2860036852751538 -4.1843248894424825 2.6028624851821771 115 127 107 1.1318784417122194 93 173 94 212 91 42 204 697 207 754 99 664 108 208 107 518
22573 -0.21677154365797666 -4.1360253801014553 2.6147628255703732 107 109 103 1.013387941094388 93 207 91 70 204 750 205 859 207 805 97 582 99 726 98 574 108 241
22574 -0.2302452575446122 -4.1218546233428448 2.6140502925109272 68 84 84 0.51906117224662329 94 272 204 768 205 875 99 737 100 782
22576 -0.079263654023680297 -4.0518793449667632 2.6359822007271339 119 82 66 1.2805490992674076 93 282 91 128 204 866 205 961 207 909 203 724 97 671 99 808 95 413 100 869 98 650 106 1058 108 316
22578 -0.20249517249367383 -4.0822771223626395 2.6825107271079922 96 71 41 1.2774980342022024 94 322 91 135
22580 -0.10459884743237613 -3.9961466937211036 2.6386341022708817 91 96 89 1.6393253614736858 93 337 94 393 208 748 91 180 207 959 205 1015 96 624 99 833 97 697 100 897 98 676 106 1101 104 1149 101 931
22582 -0.1284157960303749 -3.9535600269580442 2.6362533967009596 92 96 82 0.85737865915375566 91 216 204 957 205 1046 207 992 97 717 99 846 100 915 98 689
22583 -1.0336216351980023 -4.0179077933968976 2.5027147387574722 151 138 129 1.9423717917909364 91 229 96 559 95 415 98 591 102 596 108 377 101 672 109 182 109 183
22584 -0.036221174430173073 -3.8956741488594422 2.6706386478995481 139 98 92 0.67820582240373151 210 494 91 249
22588 -0.030801715934161346 -3.7625944130731099 2.6597038405755224 183 183 183 0.2853252408259293 211 198 91 294
22589 -1.2911098246117212 -3.7936089711147507 2.5459520440373051 183 185 184 2.2568309034347132 94 488 91 300 90 68
22590 -0.43789011384419685 -3.5798296610035347 2.4449869705557172 107 106 78 0.12627339974546176 93 470 91 332
22592 0.0010787951162073142 -3.4655422774917568 2.6718609426765338 161 165 164 1.6580704123336958 93 511 91 352 97 863
22593 -0.87168892970242284 -3.3472744950704691 2.6437080154384249 0 0 0 0.050679175231589726 93 525 94 558
22597 -0.61299737869611148 -3.2568054699359483 2.5827984782197411 160 154 120 1.8141031344886667 93 606 91 467 97 873 95 636 90 204
22598 0.043360104143338789 -3.2934529561776396 2.6298981254255436 88 98 102 1.3155485527534623 94 696 91 476
22599 -0.12561972872000532 -3.2785842841297068 2.5264901347908046 123 133 134 1.1860950390868594 94 697 91 478
22600 -0.032519347205127801 -3.2283659892230534 2.6661067688463769 83 99 104 1.4860755445479603 93 668 94 724 91 515 208 987 108 1003 90 225 109 607
22606 0.0047103866736126314 -2.8396809096515883 2.6787571387100066 128 133 129 1.3430392463594025 93 782 94 849 91 656 95 806 90 349
22618 0.0097339201840028061 -2.6281471257972955 2.6525223833418021 0 0 0 0.15061748218234158 93 864 94 923
22621 -0.81585252875997738 -2.44069382697979 2.419267329075474 0 0 0 1.448065785570636 93 856 94 912
22624 -0.96714160180328612 -2.3146938116178544 2.5757488261611394 119 122 104 0.2047408435455908 93 859 91 748
22627 -0.047262034232154082 -2.511708279031597 2.7107012572540907 111 120 106 0.29354245159721559 93 891 91 765
22640 0.1035285718401483 -2.4421733195574862 2.693572642724777 114 117 116 0.41917678286105031 209 1117 91 828
22643 -0.69142472262406862 -2.6395956187257634 2.5854140696964896 165 159 124 2.2207308428759918 93 786 94 850 93 787 94 851 91 665 95 804 95 805 90 358
22646 -0.84207194240230698 -4.3261247398178702 2.5215501080280651 96 89 86 1.075677745349332 210 90 196 121 209 273 93 103 94 119 91 1 196 117 209 269 208 433 197 290 204 528 205 635 207 578 203 446 198 442 202 591 199 566 200 614 201 526 97 394 96 361 99 504 95 237 100 522 98 394 101 466 80 584 173 160 162 316 184 42
22648 -0.80595711969133121 -2.469182994051875 2.5968277421963628 106 95 56 1.3794508940387984 93 821 91 702 191 113 213 149 192 269 212 479 211 662 89 412 88 102 90 394
22653 -0.079791711010994554 -2.3594528518975468 2.6821221765307683 128 133 131 1.7406063880396119 191 287 192 377 213 234 193 544 211 755 210 1001 44 74 191 281 212 561 89 535 89 538 90 522
22664 -0.80044785268457608 -5.0853226980519892 2.4983030288287384 84 100 99 1.6938542933645993 209 0 208 187 197 3 204 253 205 352 207 313 203 224 198 185 202 295 199 285 200 348 201 287 97 215 99 271 96 187 100 287 98 196 101 218
22673 -0.33246671762655566 -5.095620006475964 2.5635003275596642 74 81 73 0.99020951606293317 209 22 208 200 204 264 207 321 203 243 200 370 97 171 100 269 98 143 102 164
22676 -0.091368218896899001 -5.0966376119758996 2.5940321841219207 104 92 49 1.5923455827299808 209 31 208 208 204 274 207 331 203 254 202 320 200 381 201 316 97 144 96 121 99 214 100 256 98 109 98 119 105 331 106 281 104 333 107 83
22681 -0.92567623751541761 -5.0404093875060294 2.4856058270114669 73 117 136 1.2141310200324971 209 33 208 214 197 18 204 289 205 388 207 347 203 259 198 212 202 317 199 312 200 375 201 311 97 237 96 207 99 305 95 93 100 314 98 219 106 350 104 380 101 243
22685 -0.824926326594837 -5.0345603667154029 2.4922945890047545 93 99 97 0.97230367704869847 209 41 208 218 197 37 203 263 198 228
22693 -0.44280943103797832 -5.0405251203816466 2.5490619496245772 169 170 164 0.99819980934452512 209 56 208 229 204 305 205 405 207 361 203 278 198 260 197 92 199 342 200 401 97 214 96 182 99 284 95 64 100 310 98 193 105 374 106 337 104 378 107 168 102 203 101 226 80 280 162 122 173 22
22700 -0.60683507254314695 -5.0665542020876435 2.6172644939831335 180 181 175 1.5471067161956649 209 73 208 236 204 298 207 355
22705 -1.0724127312984699 -5.0003222961456002 2.4693614724638189 108 120 114 1.2205741366084548 209 57 208 241 197 12 204 320 205 423 207 374 203 281 198 222 202 336 199 328 200 392 201 325 97 261 96 233 96 236 99 333 95 123 95 128 100 338 98 244 98 247 105 402 106 373 104 400 107 230 102 238 101 259 108 21 80 229 162 80
22709 -0.21679508996343996 -5.0341530109451016 2.5811079768045695 82 84 62 0.8755030492662963 209 69 208 245 197 119 204 321 205 422 207 371 200 409 97 198 99 277 100 312 98 179 105 375 106 334 104 379 101 220
22719 -0.15677587859929712 -5.0187914366985131 2.5902200929391253 65 97 93 1.2962759409650428 209 81 208 259 197 128 204 329 205 432 207 387 201 350 97 209 96 173 99 288 95 51 100 319 98 186 101 229
22733 -0.096579282678725203 -4.9653271509010537 2.600306634024431 51 71 69 1.2249671272318432 209 107 208 277 204 357 205 463 207 412 203 315 97 232 96 194 99 323 95 72 100 356 98 213 105 418 106 378 104 419 102 224
22734 -0.14661434481170973 -4.9543121852291074 2.592407465878928 100 82 42 0.9194044085086478 209 109 208 278 197 148 204 360 205 464 207 416 203 317 198 294 202 385 199 380 200 435 201 374 97 239 96 202 99 330 95 79 100 361 98 221 105 426 106 386 104 425 107 171 102 234 101 262
22737 -0.082139525646397732 -4.9469823738905774 2.604302449608678 60 90 88 0.96677344851246394 209 113 208 281 205 468 97 238 100 367 106 390
22738 -0.046747861598325495 -4.9490689302031479 2.6077462077865561 91 105 108 0.95733315276452946 209 114 208 282 197 156 204 364 205 469 207 419 203 320 198 297 202 389 199 384 200 436 201 377 97 236 96 199 99 332 95 74 100 363 105 431 106 387 104 427 107 155 102 232
22739 -0.49187261875532473 -4.8518593776527847 2.3746438674648012 129 143 128 1.5672795791639831 208 283 204 382 205 486 207 439 198 300 199 396 200 457 99 374 98 267 105 464 80 332 173 32 162 140
22741 -1.2169615788580315 -4.8892551460558415 2.4527755593670353 177 181 181 1.1245137947568398 209 110 208 285 205 477 207 429 99 372
22746 -0.088706676456758782 -4.9299937458168666 2.6020143726690823 110 110 74 1.0947599479736101 209 125 208 293 204 371 205 475 207 427 203 324 199 387 200 440 97 248 96 211 99 342 100 373 98 230 105 437 106 396 104 434 107 179 102 248
22753 -0.080082533772358036 -4.897948086040242 2.6033147105301535 148 142 92 1.784421212765491 209 134 208 303 207 437 202 411 203 334 97 266 199 393 96 225 199 392 95 99 96 226 98 251 105 453 105 459 106 411 104 447 104 449 107 196 102 266 102 268
22759 -0.21853450543337219 -4.8781973813949833 2.5849816107396939 106 97 88 1.0149239009078155 209 141 208 312 204 391 207 445 202 417 200 454 199 401 97 278 201 394 96 244 95 125 100 392 98 262 105 461 106 417 104 450 107 213 107 215 102 278 101 298
22760 -0.4957725366941424 -4.792878935113924 2.3656537783370477 178 182 181 1.827762326690417 208 313 204 403 205 504 207 455 203 347 97 298 98 284 106 440 104 468
22761 -0.13777945713787498 -4.8782369834252792 2.596662672272855 73 85 85 1.1646574793054107 209 142 208 314 197 173 204 392 205 495 207 446 203 338 198 316 202 422 199 403 200 455 201 397 97 275 96 241 99 368 95 112 96 239 100 393 98 258 105 462 106 418 104 452 107 209 102 279 101 297
22762 -0.52218821490314593 -4.7908479350026809 2.3728526137946533 173 177 176 1.3489329844807851 209 131 208 315 197 157 204 404 205 505 207 456 198 319 202 436 199 420 200 473 201 411 97 299 99 394 100 412 98 287 105 480 101 321 80 361
22763 -0.11126295380507883 -4.8559572995312532 2.6023355888634021 119 131 129 0.80715312954793883 209 143 208 316 197 178 204 398 205 499 207 448 203 345 198 320 202 427 199 407 200 462 201 401 97 280 96 246 99 376 95 129 100 400 98 264 105 473 106 427 104 460 107 214 102 283
22764 -0.17990699483999001 -4.8474862438885671 2.5926826325141681 140 125 115 0.92390922713293022 209 144 208 317 197 176 204 401 205 502 207 451 203 346 198 321 202 430 97 286 96 253 99 383 100 402 98 270 106 429 107 225 102 288 101 307
22766 -0.13749145631348186 -4.8172468498571952 2.6003974177444285 139 138 134 0.80584061427858777 209 150 208 320 197 185 204 406 205 506 207 457 203 350 198 324 202 443 199 424 200 471 201 413 97 289 96 256 99 388 95 142 100 408 98 276 105 484 106 441 104 472 107 231 102 291 101 319
22775 -0.47281361219801926 -4.5650755220023438 2.3687954003012792 99 128 144 1.0453933672710516 208 341 204 427 205 534 207 477 209 172
22793 -0.11354365523013583 -4.2132545547528863 2.6236076846465237 174 137 110 0.55051494498009401 196 274 208 541 197 417
22796 -0.91119464631013081 -4.1662834517235643 2.5202368671874158 109 81 41 1.558382974127885 196 218 205 813 202 736 208 569
22798 -0.076591080130876954 -4.1787579971901305 2.6310690319105094 146 120 77 1.4539172273761922 91 17 196 328 96 476 102 736
22803 -0.018053444587125329 -4.1409480085053287 2.6433280255630609 0 0 0 0.022371012178084917 91 43 194 150
22807 -0.046419919531936985 -4.0589565454490302 2.6394595643903851 105 83 62 1.0697601473986043 94 336 196 437 197 564 97 665 105 1136 104 1115 107 719
22817 -0.12803490109599469 -3.3228365170407712 2.6501600612381742 94 105 101 1.7644389998862586 91 436 196 635 210 639 204 1145 95 653
22825 -0.10234781693745713 -3.0973968838244748 2.649945240383619 40 55 53 1.6289742844163637 94 779 194 605 93 723 197 964
22826 -0.19089250873339123 -3.086354611530485 2.6486289175079314 113 132 129 1.1656158962073098 91 586 94 777 95 739 90 296
22828 -1.1061665256572468 -2.9387728522322445 2.5460459031436788 177 177 177 1.7864711784898797 94 767 208 1093 108 922 109 697
22842 -0.09483987713116275 -4.0710053423567816 2.6332878233758796 122 95 74 1.4797938767093257 211 81 194 195 210 379 196 416 209 544 93 270 94 326 91 114 194 189 210 370 93 267 91 111 208 685 197 542 197 552 204 845 205 935 205 928 207 888 203 707 198 652 202 808 199 771 200 808 201 737 97 654 99 795 95 396 95 402 100 851 98 638 105 1095 106 1037 104 1080 107 691 107 695 102 844 102 847 101 876 108 303 96 580
22861 -0.10594930892124763 -5.2889322863546626 2.587626860025408 51 62 66 1.4966779802081809 208 89 197 8 204 131 204 135 205 236 207 192 198 152 203 139 202 217 199 219 201 219 97 62 99 97 100 145 98 32 105 218 106 170 104 217 107 11 107 14
22867 -0.11371277589500378 -5.2769012273077536 2.5805112472388756 64 78 78 1.7435141098696714 208 94 197 17 204 146 205 246 199 223 202 225 200 284 201 227 99 105 97 67 100 150 98 37 96 43
22869 -0.023198219724534178 -5.2915008484786616 2.59736491447299 79 79 53 1.3352535698739436 208 95 197 22 204 132 205 237 207 193 203 137 198 159 202 221 199 224 200 287 201 222 97 56 100 141 105 212 96 29 106 163 104 210 102 66
22874 0.025828216391724737 -5.2911543797949987 2.6030572639131546 45 47 8 1.7787385842042787 208 92 197 28 204 147 208 97 205 235 207 194 203 140 198 165 202 226 199 226 200 288 201 224 96 30 105 202 106 158
22880 -0.25747897670848996 -5.1773078542453694 2.5690681241722091 58 64 60 1.2037264835705397 208 152 197 55 204 209 207 272 203 197 198 199 199 270 97 117 96 97 99 162 100 196 98 86 105 279 107 72
22884 0.17260238767779448 -5.2709182509534456 2.6250169367289287 121 125 117 1.4818348012019227 208 108 197 66 204 153 205 259 207 211 203 156 198 186 202 246 199 248 200 306 201 245 105 203 104 205
22893 -0.23905290688745587 -5.0951269415023708 2.5752417101086476 48 53 47 1.3391558054071901 208 204 197 93 204 267 205 367 207 326 203 250 199 323 200 373 97 165 99 232 100 263 98 136 105 338 104 338
22906 -0.48458138063591571 -4.4983080324308755 2.3794210579522828 156 147 118 0.96081629746613906 196 50 197 225 199 478
22916 -1.0135135989352591 -4.293396030190114 2.5267735105313602 86 121 140 1.9953182222595669 196 122 208 456 209 289 197 299 204 555 205 664 207 611 199 621 202 618 200 679
22917 -0.64816921619347856 -4.2977357017700459 2.5497313827992802 85 90 92 1.5810708422768205 196 148 197 314 204 561 205 661 203 471 198 465 202 620 199 581 200 632 97 419 96 377 99 532 80 607 106 612 162 349 173 188 184 67
22924 -0.96636449168649763 -4.1996585187682935 2.5125739641471743 101 99 68 0.55354583812573777 196 176 197 381 205 772 207 719 199 732 200 774
22925 -0.12298638559117613 -4.2272412688926355 2.6407004011274129 140 105 75 1.7349490098287343 194 8 197 403 203 538 198 526 202 671 201 593
22929 -1.059261657651219 -4.151518385292901 2.5031376772227727 115 85 80 1.3218294958298915 208 580 197 433 207 778 204 712 199 797 200 846 96 454
22934 -0.85029114848979825 -4.1285723892695039 2.5289960805202152 103 57 33 1.3283588029441722 196 260 197 467 203 616 198 637 202 773 199 789 200 840 99 638 97 534 100 649 102 544
22950 0.31704158235901853 -3.405421378328314 2.6685029826139148 168 170 169 1.4371008970849206 194 389 197 731
22952 0.08197678515749339 -3.3399439454815885 2.6837763248638677 71 82 82 1.4838087035602823 197 763 194 431 198 865 199 962
22957 -0.32469942750269265 -3.2289816258356132 2.6308220893139405 171 175 161 1.3331294397550362 194 523 196 719 197 894 198 969
22958 -0.14559940506014679 -3.1722598039575698 2.6523675407615666 140 149 146 2.251652647470276 194 568 197 925 96 858
22959 -0.69470964737122709 -3.262767245302169 2.6010708593769691 0 0 0 1.1621859331523579 196 723 208 959
22968 -0.61937776870778272 -4.2586907250452253 2.5557011584209417 95 91 82 0.72673410341052846 196 178 197 345 204 598 205 710 207 659 203 493 198 507 202 650 199 632 200 673 201 577 105 709 106 642 107 413 108 193
22971 -0.94584746674097397 -5.483046528563488 2.4706519356506904 174 173 158 1.2585044819030071 208 5 204 42 205 124 207 101 203 48 198 8 198 9 202 118 199 90 200 150 201 123 97 52 97 53 96 35 99 73 100 101 98 28 98 29 105 189 106 162 104 181 107 46 102 68 101 44 80 109 162 17
22974 -0.43752703170289076 -5.4712642879853588 2.5353732174555996 171 174 165 1.2887913292291948 208 15 204 48 205 136 207 106 199 122 200 175 99 51 100 84 98 13 105 156 106 121 104 144 107 0 102 43 102 45 101 23 101 25
22976 -1.0202737791896592 -5.4392344424475256 2.45854941396879 159 165 158 1.2645984420908212 208 11 204 50 205 138 207 109 203 52 198 14 199 97 200 155 201 127 99 93 100 125
22980 -0.53243952418804519 -5.4631572504792238 2.5269821798054863 172 174 161 1.1484144734027217 199 117 200 171 201 139 205 139 97 33 207 108 99 58 100 90 98 16 105 164 106 137 104 157 107 15 102 54 101 31
22982 -1.0370863909248427 -5.4214144297281894 2.4575908312064918 142 145 134 1.5100605611388218 208 18 204 56 205 145 207 114 203 58 198 18 202 130 199 99 200 160 201 132 96 57 96 61 97 79 99 98 100 132 98 50 98 51 97 77 105 221 106 184 104 212 107 79 102 82 102 83 101 77 80 113 162 24
22986 -0.9405667605880873 -5.4175476275638292 2.4707907001437959 65 74 69 1.2099066199287773 208 21 204 60 205 153 207 123 203 64 198 33 202 136 199 106 199 107 200 165 200 166 201 137 97 73 96 51 99 95 100 127 98 47 105 217 106 178 104 209 102 76 107 69 101 68 80 120
22995 -0.88657517914178396 -5.3772013922851043 2.4809258841503787 98 100 93 1.5330723712520762 208 34 204 75 205 168 207 136 203 79 198 47 202 150 202 152 199 125 200 186 200 185 201 150 99 111 105 229 101 83
22996 -0.031342098492094496 -5.4106866587539875 2.5920220568588426 128 132 115 1.3979816801122993 208 37 204 76 205 169 207 137 203 83 198 103 202 163 199 161 200 217 201 164 97 11 100 85 105 150 106 112 104 141
