# 3D point list with one line of data per point:
#   POINT3D_ID, X, Y, Z, R, G, B, ERROR, TRACK[] as (IMAGE_ID, POINT2D_IDX)
# Number of points: 270, mean track length: 8.72381462630592
5514 3.4414943585111746 -1.5139301660596023 1.2591564915916733 50 68 72 1.509074915404554 12 220 14 2 13 96 32 86 33 269 11 175 35 355 4 163 5 413 6 279 6 284 1 681 7 425 2 452 8 414 9 806
13056 1.3937044904553426 2.967491890229252 2.8878660923248014 145 151 87 0.7615755880334284 47 339 48 302 44 254 43 291 45 262 46 241
2783 1.2118983891738533 -2.0706935917420499 1.9943689708087178 162 163 157 1.103307792079357 113 375 114 457 115 535 112 279 111 188 110 34 116 651 118 779 119 991 121 1018 120 947 33 78 11 24 35 174 4 114 7 297 20 543 27 284 26 590 25 1014 9 733
7870 -4.5091665016921416 2.0017773443691183 4.2456848666682454 128 126 131 1.5535821042583917 30 550 29 361 27 1385
28623 3.0401506403001939 -4.4734025529885804 0.91746506317691678 92 93 87 0.52344551641192616 39 71 160 185 149 250
15786 -0.035557741563527964 -0.83660624980165399 2.7330381373950123 102 105 97 0.96989838345138701 60 159 62 253 63 406 64 554 65 685
5513 3.5831416778296328 -1.5382135672819581 1.1923727274389928 60 71 62 1.7162218107106764 12 223 13 90 32 82 33 264 11 157 35 356 5 409 6 281 13 93 9 803
10698 3.2662067233087901 -3.3404014978299545 1.1549322654249379 0 0 0 0.33577500650796455 23 818 22 687
425 0.37464292440707325 0.36881253384760421 2.7887004584366633 127 135 138 1.0129483929870362 115 1137 12 738 113 1021 114 1147 112 954 111 840 110 669 109 591 116 1197 118 1351 119 1597 121 1655 120 1522 108 408 16 133 14 552 32 534 15 447 30 107 19 692 3 624 4 560 6 698 7 753 2 692 105 120
15785 0.2597992775927046 -0.8647942184493147 2.6153110141094582 82 99 91 1.4033096497563002 60 158 62 265 64 571 89 481 90 361
5512 3.7700072430822704 -1.5968170558489982 1.1373803554970821 70 81 82 1.8680672199130879 12 224 13 88 32 81 33 263 11 158 35 357 4 141 5 403 3 231 1 676 7 414 9 772
26265 3.3053300007528268 -0.49687557407307364 1.5568449004547609 113 125 113 0.78500220871000725 123 63 122 169 117 319 106 488 84 715 61 795 50 786
10697 -1.659821715128273 -4.3666239144347143 2.4658655352458236 164 167 172 2.5669436511289829 23 484 25 499
424 -0.32349609013811959 0.37472521814539228 3.0454550626962074 150 176 120 1.2368238358637758 115 1136 12 680 113 1020 114 1146 112 949 111 835 110 659 109 578 116 1196 118 1350 119 1593 121 1647 120 1518 16 123 14 565 13 597 32 513 33 620 30 121 35 612 6 725 20 1451
15784 -0.46065536724146688 -0.80728433100206676 2.870132329908087 77 107 107 1.3413108002772614 59 112 60 157 62 232 63 385 64 517 89 490 90 382 91 182 88 327 65 632 87 342 66 938
5511 3.8804507161478212 -1.6258529901163763 1.0717932930236591 49 64 77 1.0372412650344798 12 214 13 81 32 72 33 255 5 389 9 769
10695 3.2488062920113085 -3.6042396502600251 0.88556980186773071 97 99 93 3.0009676049826055 21 513 25 488
422 1.6240598120207799 0.35678507475246035 2.3212189029195147 110 123 131 1.0074177994390408 115 1134 12 808 113 1026 114 1149 112 963 111 856 110 688 109 612 116 1202 118 1356 119 1602 121 1662 120 1533 108 423 16 126 14 525 15 419 30 61 107 291 17 143 105 131
21175 0.44517128099788322 -3.323405289148222 2.112307867494676 51 64 70 1.4886113490428785 175 60 157 58 174 414 158 308 166 991 169 1000 168 950 167 897 165 940 170 770 164 887 163 684 162 658 170 765 159 362 161 459
15782 1.2205488972623322 -0.94190718897153314 2.2510698430525165 135 139 138 1.7239226620807211 59 24 63 516 64 719 65 885 87 413 59 29 86 542
5509 5.4755129278889001 -1.8833357565003346 0.53513236795490238 66 60 53 1.8908258145983876 13 77 33 249 35 369 11 154 32 55 34 267 12 278
26262 2.8150298891991974 -0.37855916593027567 1.7609088151913852 135 139 124 0.92716598531744732 123 56 122 165 106 515 95 662 84 755 73 783 61 840 50 819 39 903 171 950 160 999
10694 3.4371198198461062 -3.6307010016862957 0.84699644676504027 108 89 69 2.5067980227712652 21 490 25 464
421 0.46550870882327078 0.36518680046402996 2.7567929037334897 150 152 150 1.1316458085403307 115 1133 12 747 113 1022 114 1148 112 950 111 838 110 666 109 592 116 1194 118 1352 119 1594 121 1652 120 1523 108 406 16 124 14 550 13 621 32 535 15 448 33 637 30 106 17 158 18 181 11 543 11 536 19 703 35 649 4 564 5 852 3 620 6 703 1 1041 7 756 2 691 29 163 8 740 20 1482 20 1488 27 1273 27 1278 107 271 105 118
15781 1.0525535600672975 -0.93060144533037392 2.3138182809649712 133 156 146 1.1306024496105342 59 41 60 154 62 302 89 463
5508 3.5867144102052082 -1.6309907977156932 1.1753904298136695 91 97 87 1.5402897979018115 12 180 13 76 32 69 33 244 5 392 6 271 9 776
26261 7.434224646271586 -1.6586485529383808 -0.21210770227061365 170 171 166 1.2465306078618907 123 88 122 161 117 279 106 377 95 488 84 544 73 554 61 596 50 601
7864 1.8142517862721192 1.1030443039788971 2.5774991638923201 0 0 0 0.23404841278777316 19 918 31 421
28617 2.3203227160795552 -5.0920236417580327 1.0566418044116637 117 105 72 1.9077891437465635 160 28 149 89 72 229
10692 2.8447867847127641 -4.0471627773111543 0.97967916004602817 42 46 45 2.2508222159724682 21 382 24 767 25 342
419 -0.8077298608759016 0.35970925636939483 3.2337819777893491 75 96 87 1.0575762455968361 115 1131 12 636 113 1011 114 1138 112 943 111 827 110 641 110 647 116 1191 118 1345 119 1587 121 1641 120 1515 16 116 14 572
21172 0.37677428409570279 -3.3367055067211759 2.1389520382399119 84 121 143 1.7516739435483093 175 54 174 402 158 298 173 411 157 51 173 406 172 599 166 984 69 814 70 943 166 980 71 956 71 960 169 993 168 940 167 886 167 889 165 935 170 760 164 888 163 682 163 688 162 657 162 660 159 353 159 356 161 455 161 458 76 747
15779 -0.54074129767859735 -0.81170288569008364 2.9067715787466768 47 81 80 1.2294420978588456 59 108 60 152 62 227 63 379 64 503 89 483 90 380 91 188 88 323 92 105 65 618 93 34 66 913
5506 3.4980328323983589 -1.6456365989810531 1.2195785498765461 85 87 78 1.0723629008099571 12 175 13 73 32 62 33 240 1 671 7 410
26259 2.9949759387883859 -0.48134602178590674 1.6747960466463534 136 146 119 0.97056205225586167 123 52 122 156 117 315 106 481 95 637
10691 2.9873318940425224 -4.0702935140755478 0.83263891923491218 31 31 31 0.45216506405177631 21 355 25 314
418 1.4697703137236933 0.35005356132496906 2.372626502945963 111 134 118 1.08281409425213 115 1130 12 797 113 1023 114 1143 112 959 111 849 110 684 109 610 116 1195 118 1353 119 1598 121 1659 120 1528 108 421 16 119 14 527 13 630 32 561 15 417 33 661 30 68 17 141 19 727 5 828 28 742 34 473 107 289 105 126
21171 0.32435215278651874 -3.3270007220247257 2.1589597722882874 67 118 140 1.1545397451555675 175 58 174 408 158 300 173 412 172 604 69 818 70 942 166 994 71 958 169 999 168 949 167 888 165 949 164 899 74 891 163 692 157 50 162 665 159 359 161 460
13047 1.1582398947295232 2.77117560917024 2.6599632608551333 151 137 94 1.2906451765238498 41 406 43 169
2774 2.6100103178782179 -2.162913875487388 1.4496785463474473 67 70 61 1.2625930040469309 113 352 115 497 112 260 111 182 110 29 116 622 118 761 119 970 121 999 120 919 120 930 33 100 23 1125
23527 0.50243335197545791 -3.2994382470450425 2.115071024862675 0 0 0 0.1069133693872457 71 973 169 1015
10690 2.5605151096763068 -4.4132491404290963 0.95338527508573701 40 42 39 2.9769203352801714 22 321 25 249
417 1.0716359333483545 0.34789142240313858 2.5244848806205722 107 125 129 1.0584767468339953 115 1129 12 779 113 1017 114 1140 112 955 111 845 110 673 109 599 121 1653 120 1524 108 415 16 118 14 532 15 432 30 81 18 173 107 281 105 121
5504 5.5825750167727213 -1.986784316451133 0.45741705002808997 62 73 33 1.6084951983429516 13 54 33 220 35 347 5 330 1 624 7 390 10 323
2773 2.9636445944049545 -2.1711603090326062 1.2983836826349646 125 130 138 0.76904031005536411 113 343 114 419 115 491 112 257 111 181 118 754 119 963 121 990 120 920
23526 1.1505679500919743 -3.2883115691328939 1.8588820288700849 132 146 146 1.0410001367502779 71 1061 168 964 167 903 165 912 74 998 75 1016 76 902 78 783 77 752 79 635 81 289
7860 3.4994635470196811 0.91326860535725363 1.7012729542238294 0 0 0 1.3332308704374507 18 356 30 274 18 355
28613 0.21349921702760438 -4.1838239069225382 2.0366320158701621 92 85 61 0.44994620286017523 138 104 149 58 72 339
10689 3.3458816873635056 -4.1647080128842306 0.60789154891404051 0 0 0 1.2838449197370514 23 435 24 634 24 643
416 -1.0477180089562999 0.35748254465947793 3.3027135148437856 60 50 32 1.6422003862478678 115 1128 12 604 113 1009 114 1136 112 934 116 1189 116 1192 112 942 118 1344 118 1349 119 1586 121 1639 120 1514 16 106 16 112 14 570 14 576 13 568 32 478 13 580 33 594 30 129 18 169 18 177 35 572 4 587 11 504 7 749 8 731 26 1311
15776 -0.062693935981467067 -0.86789274601461575 2.7483862055540711 71 91 94 0.91448453120694162 59 90 60 146 62 234 65 667 66 1005
5503 5.4599649395234193 -1.9970386221347964 0.51969588491671004 89 93 78 1.8230071328133699 13 53 33 215 35 346 4 9 32 23 1 627 2 402 34 260
26256 3.3178050427588963 -0.60997822560203985 1.5442685371085896 94 103 82 1.4400133729781863 123 48 122 146 117 312 106 459 117 306 95 588 84 686 73 709 61 762
13045 1.0250274991416697 2.7403152973848113 2.6258023318236057 132 122 95 0.39214357115009468 43 150 52 72
2772 1.3917988143257163 -2.1769249858994622 1.96558033637796 159 134 127 1.1192605016704988 113 351 114 431 115 513 112 250 111 172 110 18 110 24 112 258 116 623 118 760 119 969 121 998 120 925
7859 -5.1993675518351816 1.6700103484299551 4.7217721471508121 121 81 76 1.3386870128343373 30 470 29 303
28612 0.050820409704905145 -4.1581749718052574 2.1165632389287099 61 62 52 0.17690150578298305 138 89 149 49 72 332
2770 1.2419267987040168 -2.1714042623093825 1.9478799752638472 132 135 126 1.0198425048864785 113 348 114 427 115 506 112 247 111 170 110 14 116 629 118 757 119 968 121 997 120 924 33 56 11 5 35 163 4 89 1 605 27 221
23523 0.97404922327922561 -4.0434303628203931 1.7910542489953289 105 88 70 0.64364833842743885 169 783 167 699 161 308
7857 1.7175120186554562 0.97486615720258429 2.4299614308859958 72 57 64 1.4166179316067531 17 328 19 890 105 278 107 404
28610 -0.056678519308318923 -4.1362679344851392 2.1379404152061752 133 135 121 0.65021111421873123 127 176 149 41
413 -1.1368012498362232 0.32180208090331935 3.2967730297635041 122 86 53 1.871076118818471 115 1125 12 564 113 1006 114 1134 16 99 14 562 13 558 32 453 16 87 5 864 6 716 1 1040 8 718
2769 2.9179241548508972 -2.1953061168807051 1.3127512478057937 119 123 133 0.81527485980419601 113 339 114 415 115 484 112 246 111 175 116 610 118 746 119 956 121 981 120 915 33 90
23522 0.41487201249220984 -4.0645329491820084 1.9960086563522121 136 98 61 0.64795884822570515 168 713 167 679 164 644 170 575 163 499 161 259
7856 -5.2708244230496319 1.5860117631823896 4.3504284447651065 63 70 80 0.20466977625969579 30 439 27 1294
10685 2.753725544024042 -3.2553600230572051 1.1474798883061053 103 100 98 1.0503832284614314 21 686 26 110 24 1326 22 716 113 39 114 98 115 177 116 321 118 464 119 652 121 673 120 628 25 689
412 -0.93341037849591901 0.32978900213087947 3.2719411485179029 87 102 97 1.6647044874535624 115 1124 12 605 113 1004 114 1133 112 925 111 814 116 1188 118 1343 119 1579 121 1630 120 1507 16 104 14 564 13 569 15 476 30 120 18 165 19 645 35 573 4 581 6 710 1 1048 7 750 8 728
15772 0.26436238115658067 -0.8904512348323923 2.6138772216418489 134 126 103 1.5598971463992186 62 247 64 562 90 351 89 468 89 473 88 326 65 702
5499 3.8031076913212987 -1.8396729628469237 1.0816322144629347 66 66 71 1.8538729653821948 12 130 13 41 32 27 35 303 4 94 5 370 6 237 1 642 2 428 8 389 9 705
26252 3.7109134783044757 -0.79157497736836802 1.3442922459829021 86 89 84 2.1217109787973509 117 291 106 425 95 563 84 637 73 667 61 714 50 731 39 803 171 815 171 817 39 795 160 843 138 1133 127 1151 127 1152 149 862
10682 -1.4014718619360118 -4.4748488081894155 2.375410600036381 99 100 95 1.6207722086061616 22 430 24 738 116 9 118 154 119 316 121 333 120 304 23 468 21 433 9 251
409 0.99010757190476917 0.28962376774294457 2.5399998926045528 123 145 143 1.1909051085112861 115 1121 113 1005 114 1131 112 935 111 823 110 656 109 581 119 1581 121 1635 120 1509 108 399 16 102 14 521 13 607 32 519 33 629 30 55 17 123 105 110
15769 -0.42916277630633143 -0.86652267583576958 2.8322140102412878 63 91 94 2.4684596046831331 59 87 60 133 65 613 66 914
5496 3.5595642971005894 -1.949373279236998 1.1376566068351233 61 77 78 1.2015288031005795 12 59 33 163 35 267 5 356 6 228 1 631 9 682 10 364
26249 3.6318571225977303 -0.84856708710459583 1.3844877638028279 90 101 103 1.1835014092673217 123 32 122 116 106 411 95 551 84 621 73 657 61 705 50 726 171 804 160 838 138 1127
10680 2.4421213914978819 -2.5789457489189451 1.4252175644747511 145 143 130 1.5293432145429415 113 212 114 285 115 367 112 116 111 50 116 503 118 630 119 842 121 860 120 804 23 985 24 1521 21 897 22 928 25 881 20 326 26 344 25 890
10679 2.9109422733626111 -4.3665944690109511 0.82778232057327905 84 86 82 2.4937531149408554 21 286 22 327 25 225 116 11 120 305 121 332 23 385 24 580
406 -0.36543219577930675 0.27467327278753251 3.0318426502853941 41 64 36 1.0497730154293672 115 1118 112 922 111 809 110 635 109 559 116 1176 119 1569 16 90 31 271
13035 1.0395059643764168 2.5679535576104962 2.6073067855526628 0 0 0 1.5398102448931505 41 354 47 63
2762 1.5185115555929136 -2.2557957683631473 1.8481131827240711 160 169 161 1.1765870534441423 113 325 114 402 115 476 112 220 111 147 110 1 116 603 118 735 119 943 121 970 120 902 33 43 35 162 4 63 11 2 6 185 23 1079 21 1047
7849 -4.4152564186946286 1.1948978744958727 4.1776400818315871 123 127 129 0.594699590941001 29 250 26 1320
28602 0.577123198667576 -3.4153174091240532 1.813377969231621 106 100 76 1.6764296489188801 39 0 171 99 160 227 138 493 127 605 127 610 171 103 160 230 138 500 149 323 149 327 72 728 72 731
10678 0.31857601233198751 -3.0980450092954634 2.1044428255313834 74 62 52 2.2972992399844214 5 78 6 19 20 179 25 758 21 801 22 805 9 506 5 85
405 -1.1985861115992356 0.29017253485134165 3.3578632552032097 89 83 69 1.0045724082252583 115 1117 12 551 113 993 114 1122 116 1182 118 1331 119 1568 121 1621 120 1498 16 93 14 557 13 553 32 456 11 483 19 636 35 548 6 700
21158 0.8247126894473904 -0.65993672349600851 2.4472652954822833 154 161 148 0.37036936739314141 178 381 175 990
10677 -1.0390123751888551 -2.9363130808045628 2.6460538517230363 78 68 45 2.3093597754660835 21 853 27 109 22 858 25 793 3 65 6 36 1 443 7 29 2 272 8 99 9 579 9 584 26 371 5 120
404 -1.8206382302517912 0.28410940629465292 3.581508376275583 106 106 104 1.6901979820159154 115 1116 12 489 116 1178 118 1330 119 1562 121 1618 120 1490 16 81 14 559 14 563 12 502 13 523 13 533 32 437 15 484 15 487 33 564 30 123 17 154 18 157 11 455 19 607 19 613 31 264 31 268 35 525 4 592 5 868 3 647 6 705 1 1050 7 735 7 738 2 700 29 154 28 678 27 1071 26 1209
21157 0.72146885895556312 -0.68793396968416887 2.4031761489775172 0 0 0 1.8735334234475158 176 747 177 558
15764 0.19676889452544666 -0.92288904440718356 2.6286305392890239 89 82 56 1.0355985880899266 59 66 60 126 62 224 63 398 64 547 89 455 90 340 91 127 88 304 88 307 92 28 65 688 87 347 66 1032
5491 3.8937718557030832 1.3499621615529658 1.6298097837761185 100 102 2 1.5506545934074292 12 1059 16 501 14 826 13 900 32 864 15 670 33 883 30 568 19 1136 11 758 35 857 31 487 4 721 5 1013 6 936 1 1206 29 475 29 481
26244 1.3916104170546388 2.9376189670384023 2.7635836559399132 141 120 100 0.1807204370258815 125 601 123 848
15763 0.056999170323531093 -0.91746967043897287 2.6732834738530862 115 115 82 1.3915797747233518 59 67 60 124 62 219 63 389 64 530 90 346 91 135 88 303
5490 -1.9095070910371843 -0.49089924219595044 3.4519281238856876 165 164 161 1.2790336317030877 14 321 13 204
26243 1.5333404126752597 2.1308889445498798 2.6598905438714189 79 51 40 1.8289501240292747 125 363 126 313 128 266 123 599 122 739 117 888
15762 0.14777954308742877 -0.93404972917138962 2.6408014532421764 128 113 58 1.0022067269084436 59 61 60 123 62 220 63 390 64 535 89 450 90 337 91 126 88 300 92 30 65 680 87 336 66 1019 86 415 85 649
5489 3.5793161717886806 -1.172548064229189 1.2918642820844228 45 73 72 1.6747386010449585 12 381 14 68 13 172 13 177 32 147 32 154 33 347 11 237 35 443 4 217 5 450 6 318 1 711 8 478
26242 0.90082228358597183 1.4076407981388939 2.7945438447295952 164 165 160 0.72935744685096149 125 91 123 439 117 817
10674 -1.1656890103140918 -2.9232465999059918 2.6990188906614239 34 26 10 1.894821492442643 22 854 26 375 27 121 21 852 22 860
401 -0.63376547773367553 0.28128002112809769 3.1456910573617916 60 96 86 1.0899161977351266 115 1112 12 606 113 994 114 1118 112 921 111 811 110 633 116 1179 118 1332 119 1570 121 1624 120 1499 16 94 14 542 13 560 32 471 33 588 18 159 11 498 30 103 19 643 35 574 4 568 5 848 6 696 1 1036 7 740 2 690
15761 1.1074367486359427 -0.99160890433246074 2.2908038481748472 122 146 120 2.1392070528190836 59 1 60 122 62 269 63 465 64 650 89 425 89 431 88 310 88 319 86 495
5488 3.6209414764178351 -1.2909359952583079 1.2218904670723041 53 88 89 1.1234821357791793 12 331 14 42 13 141 32 127 33 312 35 415 4 195 5 435 1 696 6 303 7 446 8 466 9 852
26241 1.0524709025440544 2.6418811009128866 2.6376740477634497 120 109 81 1.6734779645523568 125 548 124 611 123 804 126 488 130 231 132 88 129 348 122 925
10673 -6.288477246405284 -3.0472226855498397 4.6680023141553768 100 95 86 1.3397688745347607 27 274 26 445 25 791 23 865 24 1267 25 785 26 436
400 1.4348266265678697 0.26793417025397981 2.3747947581356548 74 101 92 1.1352170535407238 115 1111 12 775 113 999 114 1125 112 931 111 825 110 661 109 587 116 1181 118 1338 119 1576 121 1632 120 1505 108 403 16 95 14 504 13 611 32 536 15 397 30 30 17 118 18 154 19 697 28 721 107 265 105 104
21153 1.1941701053039053 -2.7911556697243776 1.9033415741137827 61 94 101 1.8672011327530502 155 27 175 266 174 603 167 1114 164 1073 159 580
15760 1.1109842193772517 -1.008312966042491 2.286919134138476 125 142 123 1.5504891495272195 62 262 63 458 64 642 89 419 89 413 88 302 88 306 87 372 87 375 65 802 86 485
5487 3.5719136725845706 -1.3330303987641481 1.250466501328972 33 63 65 1.111867215038904 12 305 14 36 13 134 32 122 33 303 35 404 4 193 5 432
26240 1.1011241508024443 2.5835627913631027 2.6718122298805698 156 154 141 1.9170127166374529 130 212 128 414 125 528 124 592 123 777 132 76 131 104 130 214 129 326 128 417 126 468 125 529 124 593 129 324 123 781 122 904
13029 1.1035326411613284 2.4740425254918166 2.5967473298094195 147 137 101 1.3002346988940665 42 68 43 27 140 258 136 46 137 70 141 294 139 184
2756 1.4368980609099002 -2.2565269325977324 1.8019659904234595 133 138 137 0.51284058111100284 113 318 114 390 115 472 112 212 111 138 116 599 119 941 121 968
7843 1.5543467253172751 0.5983479517587571 2.3951534384899302 0 0 0 0.89065276547871475 18 241 31 314 30 159
28596 3.6730880450510233 -4.1670482989776563 0.74105473167365221 108 108 105 2.2377360056961337 61 35 50 127 171 263 160 307 138 444 127 537 127 538 61 32 171 262 160 305 149 315 149 321 72 610 72 611
10672 -5.7249598541019973 -2.6299492237076376 4.5205589618033706 82 84 78 2.0480199270474055 23 921 26 511 27 335 25 814 24 1375 27 345
399 1.6413373186270901 0.25948791316175801 2.2867507753057428 147 165 169 1.4616651408560744 115 1110 12 782 113 995 114 1120 112 932 111 826 110 662 109 589 116 1177 118 1335 119 1577 121 1629 120 1506 108 404 16 88 14 495 13 610 32 538 15 388 15 391 33 647 30 19 30 17 11 552 18 146 31 265 4 518 7 741 28 722 20 1515 107 266 107 273 105 105 105 106
15759 -0.76933397862720465 -0.87879616256169424 2.9760201475301149 71 130 125 1.4243625808696581 59 89 89 459 90 369 60 120
5486 2.225366967205479 0.98597193946655826 2.2273177283895045 140 141 140 2.0883329866649047 113 1199 115 1317 112 1119 111 1011 115 1312 119 1771 121 1823 110 830 112 1113 13 801 32 746 15 581 33 790 33 795 35 777 4 668 1 1165 1 1148 2 794
26239 1.6155669496229033 2.1632853596783268 2.6596591774285043 104 71 64 1.4140775391177414 132 0 131 21 130 109 129 206 128 289 126 333 125 381 124 451 123 602 130 105 129 202
10671 -0.91604527707326244 -2.3172937514787351 2.7175410769944852 73 75 75 0.87424762869844108 112 178 113 303 114 384 115 466 111 101 116 586 118 717 119 925 121 948 120 880 23 996 25 891 28 1 26 530
398 -0.95964508808187576 0.27655478549197288 3.2761440016972263 142 115 99 1.7447900141581576 115 1108 12 578 113 988 112 917 111 802 120 1491 16 89 14 541 33 591 17 152 5 860
10669 1.4570435571943192 -2.2404923852943135 1.8074637752920764 48 76 89 2.1875651434486523 21 1046 8 312 20 487 9 665
396 0.45893161093973051 0.25156596236519396 2.7346726459640096 141 160 166 0.95548389432722491 115 1106 12 691 113 987 114 1112 112 924 111 813 110 639 109 565 116 1171 118 1329 119 1566 121 1623 120 1497 108 385 108 389 16 86 14 515 13 583 32 487 15 427 33 610 30 66 17 125 18 153 35 614 4 539 5 822 6 684 7 734 28 697 28 699 107 253 105 95 105 98
15756 -0.32595954882212369 -0.91664626105276525 2.8060896137508 146 150 149 0.98976528560429655 59 71 60 113 62 200 63 365 64 485 89 453 90 356 88 293 65 599 87 321 66 910 86 389 91 147
5483 4.0182439457929116 2.4007573051597806 1.7851513086778836 50 48 28 1.4075274497023098 12 1265 112 1448 16 854 14 1096 14 1097 112 1449 16 855 13 1111 32 1082 15 949 15 950 33 1055 11 904 35 1031 31 761 4 948 5 1167 6 1170 1 1368 7 1070 2 955 29 916 31 756 34 718
26236 1.33304633145292 2.9777813739544037 2.927770986263754 105 109 102 1.6747104695376656 124 671 123 872 124 668 125 618 123 869
10668 1.1270495091364368 -4.0514555989579693 1.5747846833513395 94 88 71 1.9694923093836658 21 453 22 451 26 10 25 459 116 108 118 241 119 402 121 422 118 240 119 401 120 400 23 551 23 552 24 841
395 0.37878816662586867 0.25385166006665738 2.758475826053902 84 134 154 1.2268444417882673 115 1105 12 687 113 992 114 1115 112 923 111 812 110 638 109 564 116 1174 118 1328 119 1565 121 1622 120 1496 108 386 16 85 14 520 13 582 32 491 15 430 33 608 30 72 17 122 18 152 11 523 19 660 31 262 35 613 4 541 5 817 3 601 6 683 1 1022 7 736 28 694 20 1454 27 1225 19 652 107 249 107 252 105 97
21148 1.0075012596430368 -3.1790187239849521 1.9310530480472858 43 54 50 1.960979849911443 175 160 157 196 174 499 158 422 173 500 68 651 68 655 67 378 66 195 66 187 69 989 70 1092 166 1071 166 1075 169 1092 168 1037 165 988 170 841 170 849 164 906 74 1041 163 696 75 1052 162 693 159 445 161 509 78 811
5482 -0.92682562305122962 2.8183583584859448 3.7402675349166903 98 88 75 1.296448140375573 115 1629 12 1264 113 1538 114 1677 112 1504 111 1365 116 1640 118 1791 119 2055 121 2138 120 1973 16 841 14 1322 16 832 14 1315 13 1211 32 1103 15 1143 33 1069 30 923 30 930 17 693 17 701 18 675 19 1231 35 1007 19 1238 4 1084 5 1336 3 1094 6 1341 1 1494 5 1334 28 1042
26235 17.035807055489641 5.2407224342483083 -3.0035968679361402 43 49 47 2.1841158832858074 124 486 125 471 123 539 126 461 123 537 124 475 122 635 122 641 122 645 126 459 128 502 123 540 117 706 117 708 106 807 106 813 95 949 95 953 95 959 84 1018 84 1021 73 998 73 1001 61 1030 61 1038 73 995
10667 0.18610458818749404 -4.5129304640975825 1.8233255627775562 128 116 105 1.817639987667812 116 0 118 145 119 308 121 326 120 296 23 434 24 667 21 366 22 384 25 396 22 376 25 389 9 227 2 98 1 183
394 -0.32039204879256589 0.2569048883335539 3.0240532940868059 106 123 68 1.5550013417977127 115 1104 12 631 113 989 114 1110 112 919 111 806 110 632 109 556 110 634 116 1173 118 1327 119 1560 119 1564 121 1620 120 1494 120 1495 16 82 14 528 13 561 32 473 17 139 18 150 29 147 107 242 107 244
15754 -0.11193001466974735 -0.92816104979726233 2.7032132196226453 59 67 61 2.0989587774173852 59 62 60 111 62 207 64 504 88 295 87 323
5481 3.899386307934483 3.0861009406875404 1.9604943529722905 113 122 123 1.9387014065602663 12 1400 113 1668 114 1805 112 1641 111 1507 110 1336 16 1194 14 1263 14 1270 112 1648 111 1512 16 1208 13 1266 13 1284 32 1234 32 1242 32 1250 15 1118 33 1180 33 1187 30 1746 17 1096 17 1105 11 981 35 1152 31 963 31 968 5 1284 5 1291 6 1312 6 1322 1 1476 7 1137 15 1122 2 1035 34 774
26234 0.3787292226339235 1.993349855210419 3.0851744471312146 80 61 70 1.304705005697836 126 211 128 73 125 315 124 481 123 705 126 212
10665 2.8501736506812039 -2.3005165335451978 1.2215103434278334 68 81 97 2.5617408272379727 26 454 25 1024
392 -1.0313158960294757 0.24835617168034615 3.2968706603949074 132 86 61 1.4180827787234727 115 1102 12 552 114 1108 112 913 118 1323 119 1557 121 1611 16 79 14 537 13 547 32 448 13 541 11 485 4 571 29 146
21145 1.6563295304070653 -0.96138025313719488 2.0900455807110667 131 141 147 2.2444552383302745 150 69 151 247 152 486 150 67 177 484 153 546 153 549 154 734 154 735 176 652 155 675 156 757 156 765 175 869 157 832
5479 -0.77300047556506313 0.54515171845122579 3.247044450370725 70 98 81 1.8180460535126302 12 720 113 1062 112 984 111 872 110 692 116 1233 121 1695 120 1567 16 174 14 617 115 1176 12 721 113 1060 114 1186 112 985 111 873 110 693 116 1234 118 1385 119 1636 121 1693 120 1565 16 175 14 615 13 642 13 645 32 550 32 553 33 653 30 190 11 555 19 714 35 642 4 616 5 908 3 684 6 769 1 1079 1 1084 7 795 29 194 8 761 28 728 27 1242
26232 1.2539162901380685 2.1560518712203933 2.7983177950844258 96 98 84 1.1583662336627685 125 384 124 473 123 659 130 73 129 170 128 262 126 330 125 389 124 476
10664 1.2930200939579084 -2.0500538506955652 1.9751689892935083 135 125 123 1.1824763487077654 20 547 26 601 25 1022
391 -1.495011016871135 0.25588694401698753 3.4548481250799696 49 47 43 1.7136254526018624 115 1101 12 514 113 986 114 1109 116 1170 118 1322 119 1556 121 1614 120 1485 16 78 14 547 14 553 13 521 13 530 32 442 15 459 15 465 33 573 30 115 17 144 17 149 18 149 18 155 11 449 11 467 19 610 19 621 35 534 4 577 5 863 3 631 6 691 6 695 1 1039 7 722 7 731 7 733 3 641 2 687 2 693 27 1092 26 1237
21144 0.26132051337847889 -0.84273550152598742 2.5998662823558756 123 134 134 2.0234286399590862 178 313 177 512 176 699 175 923 178 312 178 316 177 514 176 701 175 926
15751 -0.061682909459127397 -0.93960889884871968 2.7123123650334495 59 63 40 1.2124363224924726 59 57 60 108 62 204 63 372 64 507 90 339 65 638 66 967
5478 2.9352020673118666 -1.5419605417720612 1.453555708950298 120 125 105 1.982360890218249 115 634 12 160 113 474 114 578 112 410 111 300 110 165 116 735 118 876 119 1085 121 1125 120 1040 14 1 115 639 12 171 113 481 114 584 112 418 111 308 110 176 116 740 118 884 119 1091 121 1133 120 1045 13 84 32 75 33 257 19 2 4 171 5 414 6 278 8 401 20 742
26231 1.6243477422936321 2.2358814755840188 2.6616218384390269 55 49 42 1.9738242241586066 126 362 128 311 125 413 124 477 123 644 131 36 130 126 129 225 128 309 122 764 122 761
15750 -0.17246150016945605 -0.93369038479030042 2.7393946920569028 135 137 132 1.3778691723911733 59 60 60 106 63 368 89 447 65 623
5477 -1.60243907359062 3.1965174683411162 4.0507577646942678 55 59 62 0.55391512771382312 16 976 14 1424 13 1331
26230 0.63621357692678659 1.8190816725102819 2.9581227383029534 84 83 70 1.4609141061533386 126 134 128 27 124 365 123 570 122 754 122 758 117 939
2746 2.5831383012882276 -2.3603277382666805 1.4318242564797525 63 63 63 1.340900904617248 113 283 114 364 115 440 112 190 111 124 116 562 118 696 119 907 121 935 120 867 33 52 35 177 4 3 5 255 6 152 1 561 2 356 23 1084 11 15 27 58 21 988
23499 -0.019077896222383858 -4.9897785708498263 1.9899676865398239 89 107 94 1.4634359050408023 166 356 168 371 169 386 172 161 167 344 165 328 164 284 170 271 163 197 75 277 162 93
10662 3.0994234935664169 -2.3764689217857113 1.1263102422564237 113 104 84 3.492626156816053 26 395 25 1011
389 -1.650701345353552 0.26000633954567487 3.5223226954521207 141 143 142 0.97444488620548375 115 1099 12 506 118 1325 16 77 14 556 32 438
21142 1.156193875302481 -2.2629704238487789 2.0320144673335578 117 118 116 1.8049614926392843 177 13 153 15 154 163 176 216 175 408 153 20 176 223 156 333 157 431 174 744 174 746 158 628 173 716 173 721 159 662
5476 -0.41185779884736212 3.2998452936909795 3.6291641746690666 69 69 77 0.5436048956878814 16 1077 110 1305 109 1214 14 1418 17 879
2744 2.7028233585356722 -2.3654773228772337 1.3761101111053435 95 98 126 0.96542723674877684 113 280 114 354 115 434 112 185 111 122 116 559 118 692 119 903 121 929 120 864 33 55 11 19 35 181 5 250 6 153 1 557 23 1082 34 185 21 979
23497 1.1356092310361476 -5.1184349623633887 1.5391713739105168 115 117 112 0.92191168641236054 70 170 71 177 167 285 74 166 75 118 76 63 78 11 77 38
10660 3.3268689578815533 -2.4287639311476736 1.0520474336935415 13 91 105 2.4344193520570965 26 362 25 1004
387 -0.85407406347544479 0.22026125657194748 3.1279254112235377 53 60 42 1.6255586608168993 115 1097 114 1107 112 908 115 1093 116 1166 116 1165 120 1486
15747 -0.28343658162068086 -0.94615932160367811 2.8026655975631716 167 169 168 1.2023600852526324 59 58 60 102 62 192 63 360 64 477 65 590 66 898 66 903
5474 -0.48346870585050844 3.0079683481968575 3.6297124812318393 72 40 27 2.0248292954791549 12 1320 14 1358 13 1261 32 1157 32 1158 15 1171 110 1220 30 1014 17 771 17 774 35 1049 119 2112 6 1377 1 1517
26227 1.7683051365855311 1.3816580272361219 2.4667822690642325 77 77 75 1.6932648002583504 126 69 125 123 124 260 125 126 128 8 123 419 124 263 126 74 122 553 117 731 106 947 95 1160
10659 1.3687960911595047 -2.1682275112376428 1.9027918286539436 140 108 109 1.758998184773346 21 1080 26 556 25 998
386 -1.295013206784821 0.2223751268261672 3.3814631868341687 74 75 63 1.5340150413079734 115 1096 12 523 113 980 114 1106 116 1168 118 1316 119 1552 121 1607 120 1481 16 71 14 536 13 519 13 528 32 439 15 451 14 534 33 568 30 104 17 135 18 142 11 450 11 462 19 605 19 608 35 535 4 567 5 859 3 627 6 688 1 1034 7 721 2 682 28 676 20 1344 27 1072 26 1234
21139 0.30458123668796933 -1.481567960387798 2.4823895576461581 146 146 147 1.5598047715138343 177 268 176 452 156 672 175 666 177 261 176 447 174 992
15746 -0.81625837292760606 -0.91653738507876747 2.9822303613905548 137 155 154 1.576669097256264 62 186 59 77 63 344 64 445 89 444 90 362 91 171 65 551 66 860 66 862
5473 2.9249622358887994 3.3392073390046497 2.3740593184433116 153 158 162 1.4751173154960098 16 1250 32 1275 15 1192 33 1214 30 1697 5 1332
26226 6.7527742089967875 1.0216303352579181 0.52944487857661959 140 141 141 1.4970164152450838 126 153 125 172 124 255 128 177 123 376 126 148 128 170 125 171 122 416 117 491 106 650 95 808 84 915 73 901 61 938 50 860 39 916 171 960 171 963 160 981 149 966
15745 -0.84658534601112423 -0.91671270197937482 2.9840380258759729 130 152 150 1.7871371246834233 59 75 60 98 62 184
5472 4.2221952845633943 3.3255930475258224 1.8202288558869564 146 147 146 0.91626594774351056 16 1310 14 1327 15 1179
26225 1.3291300791448457 3.1385545858302302 2.9532584340061354 121 120 101 0.32139332890530942 124 712 123 927
13014 0.95794403856170296 3.8024412528336056 3.0835951447938683 68 68 68 1.1977320348887639 41 868 52 544 42 665 43 728 44 673 49 545
2741 1.3330887600104615 -2.3653008958670201 1.8362682256363809 119 140 141 0.73070008740253878 113 279 114 361 115 439 112 172 111 110 116 560 118 695 119 902 121 928 120 861 24 1530
23494 0.45087735333262768 -5.217043548886406 1.8650831115457014 181 182 177 1.4532974860078096 169 278 167 237
7828 1.8956900566419166 -0.1157753211086418 2.2857617654550135 0 0 0 2.0263144149063961 17 21 31 208 31 210
28581 3.3320247629402275 -1.5047264896541683 1.356523133525819 84 104 95 0.42532592733546903 138 1018 127 1028 72 1115
10657 3.0410988114896162 -2.4312558502248436 1.1778305803404785 107 107 84 2.9372352715657204 26 379 25 992
384 -0.45880461838686676 0.21692640922550205 3.0668346357139624 105 128 76 1.012876087652588 115 1094 12 594 113 982 114 1104 114 1105 112 910 111 797 110 621 110 622 109 547 109 548 116 1167 118 1318 119 1548 121 1608 120 1482 16 72 33 583 30 84 17 129 5 837
15744 0.2620765505974183 -0.97561491976977943 2.5699579896310945 123 114 106 0.64415720943746102 60 97 62 208 63 384 89 430 90 314
5471 -0.84034948262660958 2.861725814574263 3.7089060902337425 145 89 52 1.7675743340447925 12 1274 13 1219 32 1115 5 1348 6 1349 1 1501
10656 2.5837322234741236 -2.3522904468777841 1.2304215943499968 0 0 0 2.3527310606470948 20 397 23 1081
383 -0.89407857985240169 0.18454021575398222 3.2451928897220848 68 59 50 1.5048050410957539 12 538 113 973 114 1096 111 790 118 1313 119 1542 16 58 14 519 15 445 17 130 19 618 31 251
21136 0.27470357581653654 -0.5716194896514839 2.6628329862218654 106 114 109 1.6866466129122777 36 65 178 426 177 614 176 792 175 1038 175 1045 36 67 178 425 177 615
15743 0.11179655067885229 -0.97308116385508003 2.6483088658635312 94 107 108 1.0097096113620316 59 39 60 96 62 201 63 373 64 513 89 433 88 282 65 656 87 322 66 996
5470 -1.220841040760122 2.7269182806734142 3.7747566373431409 92 56 25 1.007248879060896 16 795 14 1305 17 654
382 0.95675631064582678 0.20611827177751355 2.524752922645809 131 132 114 1.2820544571107777 115 1092 12 717 113 984 114 1102 112 914 111 807 110 637 109 563 116 1163 118 1320 119 1554 121 1616 120 1487 108 387 14 490 13 574 15 395 33 616 30 29 35 629 3 578 4 517 6 673 1 1010 2 667
21135 1.3737950643823409 -1.4138417183828762 2.1199073527885184 77 78 61 1.3709194042034991 155 497 156 593 154 535 177 306 178 68 176 481 175 689 174 1008 157 684 158 853
15742 -0.13062710519941317 -0.95627981480263258 2.6587200200915682 154 156 151 1.3215351682003147 59 44 60 94 62 193 64 495 90 334 89 434 88 276
5469 -0.72763322544975206 2.7611919775812055 3.6600375294239305 65 35 24 0.89900673879354775 12 1256 14 1299 17 688
26222 9.1838807689364703 7.3698676234099887 0.64404492904844612 163 164 160 2.2097458047793892 129 766 130 685 123 866 122 899
15741 0.1624539027829085 -0.9878567619274996 2.6257301098134738 134 104 86 0.86179063047951143 59 30 60 93 62 198
5468 -0.87226614749545639 2.727361057514849 3.6914301107107845 79 46 24 0.58914192668618182 16 806 14 1293 17 671
26221 0.90318745374745568 2.6176693785728213 3.0009833212091079 129 132 118 0.26518679982568533 125 556 128 428 123 831
10653 2.9179330588652812 -2.4468231186236271 1.2521143000658697 81 101 109 0.19954387369085927 26 382 25 974
380 -1.6085237182730527 0.2190084598694344 3.5104036918116504 104 104 104 1.7124157755345513 115 1090 114 1099 116 1161 119 1545 121 1604 16 66 14 546 12 490 13 517 32 413 15 462 11 443 19 601 4 575 6 692 7 724 27 1060
21133 0.63119099456283878 -1.1676327471375541 2.42141736177904 87 81 75 1.4751199950644396 155 670 176 608 178 216 153 517 154 701 156 806 175 822
7823 -4.6614261948616527 -0.3101568835075893 4.3182380470170907 61 74 73 0.78651135905102088 17 19 28 522
28576 3.172030721660517 -2.1510936574435213 1.3074452056823336 62 75 73 1.4391830299545056 50 473 127 920 72 1022
15739 0.02036759198329742 -1.0020679952438678 2.6736202040398562 66 54 48 1.8165142480895282 59 25 60 90 62 189 62 191 60 89 63 359 63 361 64 486 64 491 89 417 90 316 91 125 65 619 65 622 66 946 66 954
5466 3.9886111468853649 2.8661347533956283 1.8651076694892061 69 72 20 0.91283105626256678 16 1113 112 1568 15 1071 30 1702 31 911
13008 0.59398055528666838 3.453876670482543 3.2803265645904958 118 122 122 1.7373393544033289 47 564 48 471 41 721 47 560 49 372 51 329 51 327
2735 1.2672298547800069 -2.3869298638865191 1.7645263659107209 135 147 135 0.62440751116188498 113 264 114 346 115 431 112 159 111 96
23488 0.045658440953030621 -5.3134423234154218 1.9195211922007991 92 105 105 0.7364355485853652 169 185 167 154 165 137
7822 1.4280191972788163 -0.13164720083340231 2.3028792487934493 156 158 155 1.4734408450911942 19 576 31 196 20 1371 27 1138 107 209 105 38
28575 3.6319665651489714 -2.2005258823243081 1.1231196717129541 79 70 75 0.32115609723588751 138 854 127 907 72 1007
10651 1.3667792625485127 -2.2809638951686173 1.8896490902238383 141 130 125 1.0784905209438469 20 472 26 513 25 966
378 -0.54355388654775927 0.1857200905767929 3.0959723180582732 86 108 81 1.2556526678025199 115 1088 12 566 113 977 114 1097 112 906 111 795 110 615 109 542 116 1158 118 1312 119 1546 121 1605 120 1479 16 64 14 514 13 538 32 449 15 433 33 581 30 78 17 121 18 137 11 471 19 625 19 630 31 254 35 558 4 551 6 677 1 1023 7 717 2 672 20 1380 27 1116
21131 0.45747949448308478 -1.5809838272967582 2.4178531950072704 51 75 56 1.5727747016310303 155 461 156 594 177 218 153 212 154 424 153 208 155 462 157 728 157 730 174 937
15738 -0.061645275573382188 -1.0039353814783489 2.6864736540684384 52 42 32 0.95603587390109357 59 23 60 88 62 183 62 188 63 356 64 479 65 602 66 924
5465 3.4076642491528299 2.7386279722479938 2.0595996159994323 97 117 0 1.4097145523804304 16 1005 110 1233 14 1204 15 1052 30 1445 17 908 31 839
26218 1.0276205949110209 2.1941655592581641 2.8818008248534452 102 118 70 0.42958452622960436 124 519 123 697 122 815
377 -0.9611456012823868 0.18597326279092358 3.2428478193766659 63 47 35 1.4312295469328207 115 1087 12 532 113 975 114 1095 112 904 111 789 116 1156 118 1311 119 1541 121 1603 120 1477 16 61 14 522 13 525 15 444 33 565 30 86 17 119 18 143 35 542 4 557 5 836 3 612 6 679 1 1024 2 683 28 668 20 1355 27 1077
15737 0.021034908286876833 -1.0150090123571724 2.6663603793987112 127 100 91 0.81350968878266239 59 16 60 85 62 187 64 480 65 612 66 943
5464 4.104437389488055 2.7207940472490297 1.7960107611362466 57 75 76 1.5062687301654134 16 1040 14 1190 13 1194 15 1035 30 1651 31 871 29 1052
26217 3.5871870905276277 3.0315851735027004 2.1036231969715304 127 110 84 1.3600114134275647 124 548 125 499 123 687 122 763 106 1084
10649 0.29815656690747266 -2.1643545295367104 2.2392811302039037 0 0 0 1.7668174274871649 20 506 21 1079
376 2.1041844059160804 0.16948555538669682 2.0964497141970102 166 166 166 1.4442323091936458 115 1086 12 783 113 979 114 1098 112 916 111 810 110 645 109 576 116 1160 118 1315 119 1550 121 1610 120 1484 108 395 16 56 14 465 13 590 32 520 15 355 33 630 17 83 18 125 11 537 17 82 19 694 31 241 31 246 35 668 4 484 4 490 5 782 6 661 1 994 2 651 28 707 28 710 29 120 27 1343 27 1351 105 91
21129 0.57303981810472737 -2.4493555717780167 2.2173056393220678 145 148 141 1.8126415586631552 176 121 155 70 156 202 175 314 155 66 156 203 157 348 157 351 174 644 158 593 173 627
15736 -0.10094622038824093 -1.0016173293347252 2.6510386172010945 160 165 161 1.3130564502436464 59 19 60 84 62 182 63 351 63 355 64 478 89 414 88 269 65 601 65 605 87 309 66 922 66 926 66 923
5463 3.7858772864040628 2.6798080887350144 1.8542558843091352 107 99 0 1.9062308615311185 12 1324 110 1229 13 1176 30 1512 15 1034 18 982 35 1082 5 1234 3 1004 6 1237 1 1426 2 989
5462 4.103232523584011 2.684112483815547 1.6952568061811037 74 84 81 0.64030985320887301 12 1333 14 1181 15 1027 30 1645 35 1090
26215 2.8286122852234872 2.604185745769048 2.168513152595295 0 0 0 2.0146307528462519 128 388 129 338
15734 0.55619996445666975 0.66402908922504134 2.7761996616077833 119 110 69 2.1681732892669299 57 507 58 697 59 848 60 939 60 940 62 912 62 914
5461 4.0303044370264356 2.6653778867055609 1.7762384626545724 19 40 14 1.8228305069133279 16 1001 14 1173 15 1024 30 1593 31 848 31 851
372 -0.34990366188184546 0.1549770769343593 3.0254804431851414 119 133 82 1.7259994319288579 115 1082 12 571 113 971 114 1089 112 902 111 791 110 612 109 538 116 1152 118 1305 119 1538 121 1598 120 1473 16 51 14 508 13 542 16 62 30 57 18 135
21125 0.51310892696146271 -2.1579254287697074 2.2945449524283053 84 85 62 1.6858831958792149 177 63 154 158 176 266 155 234 156 376 175 451 177 68 155 237 156 380 157 504 158 717 173 768 68 1000 159 769
15732 -0.68584061324961731 0.7542675136447401 3.2663377084457337 107 121 89 1.8059364894280121 56 136 57 467 59 737 62 784 91 694 94 276
5459 4.1556876513297851 2.6232396074094169 1.7482494462103964 56 68 62 1.3677851643269068 16 986 14 1160 15 1008 30 1590 16 980 31 840 29 1028
26212 1.109372551278702 1.8978896069618636 2.8271247530821806 155 138 69 0.62047697564692594 126 192 123 560
371 -1.2140226069210613 0.14631399221840435 3.3389719273155882 123 121 97 1.4273556298552401 115 1081 12 501 113 968 114 1087 116 1151 118 1303 119 1534 121 1595 120 1470 16 48 17 117 18 134 28 664 7 705
21124 0.48571179220051586 -2.126683903887344 2.3091462346063718 64 62 50 2.0981289500686136 177 82 154 173 176 280 155 248 156 392 175 462 177 81 156 391 175 460 157 520 157 521 158 735 174 806 174 804 158 732 173 778 173 779 159 778 159 781 159 782
10643 3.3547225273474268 -2.5947699649295237 0.94841945983206855 75 108 92 0.55130727747518593 26 232 25 922
370 -0.7578267424270374 0.132515777346976 3.1647833347825509 60 64 42 1.8759197036583264 115 1080 12 529 113 964 114 1083 112 896 111 781 111 785 114 1088 110 597 110 599 116 1150 118 1302 118 1304 119 1532 119 1537 121 1593 120 1465 120 1472 16 46 16 50 14 505 13 515 13 518 32 423 15 424 30 56 30 71 17 109 19 590 31 242 35 536 4 546 3 600 6 670 1 1011 7 709 2 671 8 695 28 669 20 1331 14 501
2725 2.5730343021465969 -2.5212211146096601 1.3827264728112374 78 82 88 1.6846948202217884 113 230 114 301 115 387 112 135 111 72 116 516 118 643 119 855 121 880 120 821 33 8 5 210 6 123 7 253 8 295 22 953 24 1546 26 367 25 915 9 590
23478 0.41105105352632587 -5.5606087877163883 1.5436350932419731 37 43 41 1.7495242446622039 168 64 169 77 167 42 170 13
368 -1.5324298134043135 0.10969869990469037 3.4454862126472556 141 143 138 1.4399298657102553 115 1078 12 441 113 959 114 1080 116 1147 118 1299 119 1525 119 1526 16 42 32 377 17 110 5 834 3 603
5455 4.1264259682303139 2.4711422388463431 1.7698363513433462 54 61 56 1.2967936502515069 12 1289 16 899 14 1123 13 1130 32 1100 15 971 33 1072 31 780 35 1043 5 1191 6 1192 29 961 30 1439 1 1385
367 1.4341609449548443 0.097489719118157403 2.3383884609758319 170 170 168 1.2830575164300555 115 1077 12 707 113 966 114 1082 112 900 111 793 110 624 109 553 119 1535 119 1536 121 1596 120 1471 108 377 108 378 16 41 14 459 13 556 32 474 15 353 33 600 31 236 7 710 105 82
5453 1.1196148875640164 2.1873340908891992 2.8512317419526965 115 155 147 2.3623171523919986 14 1104 13 1065 15 953 17 598 19 1172 4 953 6 1156 30 848 29 576 28 1054
26206 3.7748802736519171 2.1330467564371451 1.8114929320884234 98 96 49 1.6705189271361249 129 258 123 514 122 637 117 756
10638 -1.3434205329969826 -2.202610997771925 2.8842041476088403 0 0 0 0.69513114909869744 24 1481 26 561
365 -0.736169743223129 0.093677838425997736 3.1510059531322785 50 55 34 1.9209551658036583 115 1075 12 524 113 960 114 1078 112 891 111 775 110 590 116 1144 118 1300 119 1527 120 1462 121 1589 13 510 15 412 33 552 17 105 11 423 15 405 35 529 16 33 5 815 6 666 6 657 20 1314 27 1061 26 1238
364 -1.6893004781276988 0.10905346533371429 3.5070856885633086 166 170 173 1.1281291094747814 115 1074 12 427 114 1076 116 1146 118 1297 119 1523 121 1587 120 1461 16 36 14 517 13 485 30 83 31 237 35 495 4 554 6 676
5451 4.2272534425325503 2.384297036131418 1.7071114992925969 118 108 95 1.8846477013293921 16 861 14 1086 15 940 32 1093 33 1058 11 900 31 765 4 936 5 1160 6 1166 1 1364 6 1157 7 1065 29 943 30 1394 31 753 30 1380
26204 3.2020763097774392 1.8109990477978761 2.0063402642642019 82 94 70 0.29224102183789041 124 335 125 244 123 481
363 -0.27538851618808169 0.092170894343345661 2.9705713956729456 75 85 76 1.4288557735680614 115 1073 12 553 113 961 114 1077 112 892 111 778 110 600 109 526 116 1145 118 1298 119 1528 121 1588 120 1463 16 39 32 440 32 422 30 33 17 94 18 123 31 238 3 583 1 1008 2 660 29 125 31 233 107 230
5450 0.79260716183920821 2.0592340444719839 2.9585012669753223 139 158 139 0.60027875070839987 12 1143 14 1075 17 558
15722 -0.47131246668613896 2.2340012825943716 3.449408321062323 160 162 158 2.0558624711249416 55 234 56 449 56 450 55 233 57 900 57 904 59 1102 59 1103 55 228 102 331 58 976 60 1170 62 1092 62 1096 94 528 94 531 93 617 93 620 101 132 97 311 100 125 100 126 99 159 59 1104 60 1172 96 341 92 806 55 227
5449 0.92521025264094814 2.013367026302999 2.8953697359645423 158 164 158 1.7315038794613959 16 650 110 1025 111 1207 109 951 14 1048 15 917 18 561 13 1030 31 594 107 488 105 445 104 391 103 239 54 179 55 278 41 111 40 248 40 264 38 510 38 522 143 329 102 206 56 512 102 202 57 1040 142 160 37 697 37 703 58 1100 59 1275 36 929 94 591 93 717 93 721 96 334 98 57 144 637 144 646 142 152 146 712 146 716 145 693
26202 1.1792087258139534 1.4988534838210927 2.6920132329432791 171 171 169 0.62391059446222519 125 134 123 456 122 622
5448 4.0975840606581153 2.2093664516777332 1.7227713168152701 120 39 45 1.6165840390938453 16 775 14 1021 15 885 30 1200 30 1211 31 708 4 893 29 864
26201 1.9853774321705642 1.5615185128014326 2.4137747821250946 100 101 85 0.38707801882009374 126 121 122 588 106 977 95 1177
5447 4.1270629145842177 2.0849791059143881 1.6975838675682691 72 77 82 1.6483600223573887 16 733 14 994 13 1056 32 1032 12 1209 15 861 33 1008 30 1095 11 867 35 979 35 986 4 865 3 910 1 1311 7 1024 29 799
26200 1.0652206411686289 1.4552151033926219 2.7456588037794156 109 106 101 0.040961567290410061 125 113 123 447 122 612
12989 1.6328631260255249 4.6798515984819602 3.0963459300121761 34 85 116 1.0356464531313316 47 1078 42 879 43 957 44 893 45 860 137 845
2716 2.4799639965951075 -2.5655142991507311 1.3419530299840932 128 129 115 2.1111061018308526 113 214 114 288 115 356 112 117 114 289 113 213 115 370 115 364 111 51 118 631 116 504 119 843 119 844 121 865 120 801 120 802
23469 0.33555280735518234 -5.6686395578830053 1.5339203556166334 91 97 93 0.52266100841542285 168 20 169 30 167 5
7803 2.4597445882042002 -3.6667899553367493 1.1229590607933788 77 68 71 0.70759689262607628 7 2 23 665 24 1041
28556 -0.51932037354776606 -3.1850903094093157 2.4963962718454411 135 144 139 0.25838013603368865 138 570 127 728 72 931
359 -0.97882162979739207 0.066897055062310903 3.2236796931033322 71 57 38 1.5219157627942368 115 1069 12 484 113 954 114 1072 112 884 111 766 116 1140 118 1291 119 1518 121 1580 120 1455 16 32 14 485 112 887 111 767 13 487 12 472 14 478 15 415 32 382 33 522 11 411 19 577 1 996 6 655 27 1042
21112 1.165255855423196 -1.0914150804650187 2.2404095794870287 125 130 123 0.59136049886170017 156 758 177 453 175 833
10631 2.4180606941997893 -2.5321544496335164 1.24062143727248 0 0 0 2.4522267775567119 20 301 21 904
358 1.0529385147279242 0.052716229495040554 2.4835797968686131 112 84 79 0.91466011435534278 115 1067 12 663 113 956 114 1071 112 889 111 780 110 611 109 540 118 1293 119 1521 121 1586 120 1460 108 369 16 27 15 358 19 632 107 237 105 76
21111 0.72262520942306097 -1.1632343086968264 2.384746670076181 0 0 0 1.5730275843829991 176 616 177 441
15718 1.5123183987427933 0.62389862966765297 2.4190136100352779 131 124 120 1.8572440339737342 104 44 57 587 37 264 58 782 59 995 11 618 14 594 110 737 31 323 107 326 104 47 105 166 57 588 37 266 58 781 60 1127 36 480 36 481 146 201 146 202 145 144 147 293 178 855 148 471 148 473 150 615 152 939 151 745 177 1023
5445 4.0425027041955204 2.0235125945958941 1.7007915877819655 49 68 45 1.2884415781383602 16 714 14 984 32 1021 13 1043 15 847 30 1045 31 658 4 853 30 1041
26198 1.7333601588615524 1.5035588965048781 2.5136018783918299 136 129 119 2.2190828513164687 128 33 123 444 122 585 117 769 106 993 95 1197 95 1206
357 -1.0680944920966358 0.063617477060231131 3.2612148905650837 69 51 36 1.2933796822878458 115 1066 12 468 113 951 114 1068 112 878 116 1138 118 1288 119 1517 121 1579 121 1584 120 1452 120 1457 16 26 14 488 13 491 15 411 33 524 30 51 17 96 19 571 35 512 5 813 6 656
15717 -0.75320929357314881 3.7534878529797759 3.8328684073829722 117 120 119 1.3532989999668723 56 766 57 1232 59 1337 102 737 56 764 57 1229 58 1239 96 698 101 627 97 708 100 596 99 585 98 588
5444 1.3640809754340233 1.8428911786047368 2.6958157487625249 151 139 125 1.8024476195057701 32 934 30 696 18 523 35 885 13 974 1 1297 7 1009 2 896 34 654 105 409 104 352 54 130 55 255 41 29 142 71 143 225 57 1072 37 621 58 1169 94 594
12986 1.6380776047971783 4.6224333065741261 3.0963641177127972 103 109 108 1.4867113796583555 41 1055 47 1037 42 861 43 935 44 868 45 839 45 838 49 922 46 798 46 801 51 867 136 862 137 835 135 794 133 705 134 678
