# 3D point list with one line of data per point:
#   POINT3D_ID, X, Y, Z, R, G, B, ERROR, TRACK[] as (IMAGE_ID, POINT2D_IDX)
# Number of points: 368, mean track length: 4.3982503287780892
4535 2.2332453680911217 2.7805071177184351 3.9271628143415516 93 84 79 0.98659943380617754 6 2370 20 2916 19 3233 7 2070
19895 -12.64713931890318 -6.2397963851270184 -4.6250735639289706 125 135 137 1.1691344541654058 33 562 63 71 64 842 26 274 65 744
14809 -0.18298529198649974 1.028631422781227 0.57913579564835826 69 71 83 1.5268152321860409 10 1999 11 2476 34 971 57 2959 11 2488 58 2692
4536 1.5575245883022819 2.7332333284373198 4.5686441275179686 68 70 69 0.50806612795453188 6 2409 20 2922 7 2262
19896 -10.141777310809371 -8.3975543889573849 -4.3241702708925533 132 147 155 1.9912323277295616 63 77 59 1613 60 1219 61 60
14810 2.2107259379565982 4.7017493522483917 -13.918505913027721 168 167 118 2.6934015037419061 33 3138 11 2482
19897 -48.763202117196244 3.3825809143832055 -23.143300754990388 146 159 90 1.5327832478551671 58 2143 63 91 62 1221
14437 -3.9991554942961187 0.35045085029868939 -4.2564644928448763 99 89 88 1.9779610366870284 33 2426 53 3803
24710 1.6704200461255425 -8.6643577024074663 -3.668780200259476 49 54 35 0.44175368963310258 61 3071 55 446
4164 5.4588239842483191 -9.3532494190390221 13.527154836401195 137 129 120 2.3968325204605443 78 1529 29 497 28 861 79 493 18 55 20 228 80 2464
24611 -1.8778916250197522 -8.1066823066707254 -4.509379023299795 64 69 69 1.5389119535080462 65 2925 66 2298 67 1821
4065 -1.6906648862427007 3.2088151995365068 1.0930597706343077 212 173 166 2.0940757731838211 5 3306 4 2829 3 2521 1 2208 2 2430 37 1768
14811 -3.3256746032125668 4.6713650722937325 -10.232069722133756 155 129 128 1.5857157511205742 33 3275 11 2493 34 1422 12 2032 57 2220 15 2094 15 2110 13 2001 13 2010 14 2009 14 2022 25 2369 25 2375 58 1425
4538 1.2712265918061443 2.7145253666367055 4.704143978896413 67 67 67 0.86251660158826304 6 2435 20 2949 7 2340
19898 -11.509731700329233 -7.4155053220891176 -5.0588934718141569 84 93 98 2.1429505171125003 58 2537 63 103 64 4059 65 2108
14812 -11.431226970350732 4.0059341307036354 -3.1934297073966675 172 165 172 1.1987220608335367 11 2495 14 1870 25 2427 16 1778 26 2085
19899 -10.789546644077772 -8.5141755583714218 -4.5500412808744635 114 130 120 0.83262395291307056 58 2033 63 104
19900 -67.79362267106211 -8.0929737823929919 -31.923852652422426 81 93 96 2.3090736967523049 33 1877 63 107 11 863
19901 -34.890558707927269 -4.807224736672091 -19.009461445208625 162 161 164 1.424047569917485 58 2439 63 118
14815 -6.6607481228478775 4.1871759266459989 -6.2678162605104042 227 208 202 0.69683284354956432 10 2226 11 2504 15 2032 13 1952 14 1950
4542 5.7193887680080175 1.8036118601661408 10.242796550122103 134 114 105 1.347171847518462 78 3790 20 2193 41 3398 3 1816 1 1767 2 1979 19 2600 37 206 38 578 28 3162 21 1775
19902 -4.449523154801704 -0.40936363184872693 -3.7347359347903679 125 88 89 1.669392689996809 16 593 63 122 26 983
19904 -11.222132916661726 -7.0544515867167155 -5.4406078867554664 109 141 174 1.3406774296574937 58 273 63 138 64 1170 59 3218 65 833 60 732
14818 -10.276191880474219 4.144571095200372 -3.9033742036944354 119 118 124 1.7030890509908774 11 2509 34 1416 13 1914 14 1902 25 2435 16 1801 35 796 26 2124
4545 2.7701750771612126 1.7548679452121949 11.062578420442408 125 118 119 1.6470719381557952 5 2170 6 1978 20 2228 78 413 6 1963 18 2271 29 2587 28 3066
19905 -0.030725333390056168 1.6507259929583062 0.051773570570095587 130 132 129 0.74344053349062256 16 2125 63 141 62 625
19906 -11.198442639053797 -7.693454599503931 -5.2195232211603777 129 142 150 2.2453749992161476 58 1125 63 154 64 1266 59 3462 60 591 65 2172
14820 -10.114962007654697 3.9422986413077497 -3.0268266986670738 227 227 225 1.6664681386804363 34 1420 13 1918 14 1905 12 2065 25 2473 16 1799 63 773 62 649 11 2520 35 780 26 2120
4547 4.6926659378906548 -7.2832195322679576 10.576610476108284 31 34 15 1.3210962967021567 20 289 80 372
19907 -4.1283822295471326 3.7087810696470673 -2.3236240742610308 38 32 20 1.3660696544815061 16 2022 63 170 62 850
14822 -5.4223146303555092 4.2723088748239668 -6.7476688808278285 171 139 126 0.93158053310689048 12 2073 15 2084 13 1992 14 1997 25 2442 16 1916 11 2524 35 991
4549 4.1134245992732996 -7.1211620826120123 10.895829280288702 179 176 177 0.92539041996646532 6 19 20 305 28 1024
19909 -8.8473464151827077 -7.7821789492263003 -4.2280009773803657 136 165 205 1.5001890844741266 58 1962 63 184 64 2702 59 100 60 1616
14823 -6.2525779703614406 4.0450977699245394 -5.5312798148284639 234 212 207 0.0058520379088503752 10 2264 11 2527
4550 1.7450621001473896 -7.1185418520918127 13.724096330874525 68 72 22 0.93493034829860511 6 27 20 332
19910 0.065573250867899044 0.89643199112745942 0.2658128047244937 122 127 123 1.0499133423618217 16 1830 68 2279 63 195 62 493 69 3672
14450 -12.237304099359225 1.6920618147446749 -11.772696512622739 92 90 91 1.6266639501923896 10 1516 33 2672 24 2174
24723 -1.7019234604069891 -9.9389675293958941 -14.026298447753524 132 150 174 0.83679530516328793 61 227 55 822
17180 -2.8291145503129047 4.8005307891451947 -11.56297762763659 81 85 88 1.2185038506538188 15 2081 13 1996 25 2332 11 2470
22267 -0.30099344839881165 2.9938390340869034 2.9269744296397824 90 97 103 0.67134169964085244 35 1658 68 3448 36 769
14826 -4.8473918201650807 4.1229876771694807 -6.0599697954719911 153 130 122 1.25913080360687 10 2217 15 2114 12 2098 14 2013 25 2502 16 1938 35 1009
4553 9.2252738504837666 -9.7111485126990793 17.82676598684051 47 47 24 1.2461671048172627 5 119 20 451
19913 -11.094582228881421 -7.2334507588792736 -5.4514682954331564 41 42 37 1.666171232435294 58 2323 63 215
14827 -0.29927866390961588 4.5619594667249572 -10.031989481371731 158 141 135 0.91195183898278831 33 3310 11 2551 34 1481 12 2122
4554 8.19669070023388 -7.2314084735697879 14.555988621718713 56 59 32 0.83725635982492097 74 2830 20 562
19914 -10.574917042280623 -6.529338309560071 -3.9101374155235966 55 56 58 0.36488871102061926 58 525 63 224
14829 -0.51059256650695639 4.5490701582065505 -9.8252416880756837 183 166 159 1.1842819333898502 33 3315 11 2553 34 1486
4556 12.395100014448747 -9.1637889377585804 18.144742182914619 117 122 92 1.0100805426040464 74 1864 20 584 19 1037
19916 -10.314174393040714 -5.4776990862941126 -5.1119454491914862 62 74 98 1.2993607292471085 33 578 63 233
14830 0.05563001773116618 4.8145230295825936 -10.866181565706489 196 181 176 1.8397107478047932 33 3304 11 2564 34 1498
4557 7.9218339459661307 -4.9759018956084899 14.0920698388034 32 33 15 1.7876832675905139 6 726 29 1247 21 438
19917 0.056001439781344968 1.2475708856728636 0.17033854810472734 40 43 40 1.4451289901636888 16 1950 68 31 63 238 62 167 35 533
14831 -2.0625037112633096 4.3908385877160159 -8.1696359577010931 131 127 131 0.74762955112965424 33 3381 11 2565 34 1489 12 2137 15 2234 13 2124 14 2147 25 2520
4558 5.8143113863030234 -3.7822452842480598 11.372024110039408 35 37 23 0.52955364242720193 6 768 20 1097
19918 0.021779510815720351 1.4973174555042017 0.093671377780323653 53 56 53 0.54560788671069571 16 2056 63 242 62 1012 35 754
14458 -9.3452949550697593 2.1147838705496662 -10.135233427526151 45 45 44 1.5073248482650721 10 1623 33 2853 11 2040 15 1478 13 1442 14 1448
4185 7.5177294150486684 -10.780057454870917 18.782574638835396 0 0 0 1.4657014499124752 74 3855 78 3361 20 360
24632 -1.4231209656132784 -10.00589600126462 0.75818150294601394 182 182 181 0.31106308465165622 65 2003 66 3341
14359 -5.4236504952658411 -2.6715915600663243 -4.1601174442930624 164 166 142 1.4374455215887412 24 360 32 879 33 850
17561 -2.5064426258370567 3.7870974308151553 -3.2256817916979426 160 141 135 1.7653601742448282 13 2303 25 2889 24 3480 16 2212 35 1266
14832 -1.4307610217969653 4.3731198321460392 -8.3738963208159038 146 134 130 0.8613051564396772 33 3370 11 2572 34 1501 12 2149 15 2268 13 2165 25 2532
19919 -11.337913266458651 -6.1373194216002487 -4.9580437521357394 93 99 95 1.8013022746176375 58 1860 63 246 26 207 64 629 59 1999 65 960 60 1590
14833 -2.4274368403943303 4.2937882638968459 -7.4753284134887732 115 99 102 0.91796277779517022 33 3407 11 2573 34 1499 12 2145 15 2217 13 2117 14 2139 25 2546
19920 -53.624440800516361 0.051787667412868214 -28.361377788992165 166 171 169 1.8081288057274889 63 249 58 350 57 1483
17563 0.089482958950145117 1.7138184835162669 0.372514791543409 42 45 62 0.87319850781578434 57 1587 14 2314 13 2320 63 924 62 1262 35 950
19921 -16.253392535030862 0.12958639583976281 -9.8921238139811827 177 178 173 0.74123833369717762 33 2421 63 251
19922 -11.13373327988719 -6.6110035166191734 -5.1685266452417205 142 149 167 1.9991233133279416 58 2138 63 253 64 1490 26 90 65 657
17192 -3.6840160849064594 4.2024349708723383 -7.0670194139537177 111 107 108 0.92704869435775028 12 2097 15 2134 13 2031 14 2042 25 2486
22279 0.13895951006184556 2.9835899645919577 2.6944767692925105 74 81 84 0.91021799290310079 35 1807 68 559 36 849
17565 -2.3453250331765272 3.7383771345419907 -2.8764023781384194 73 73 75 1.5409133106782689 15 2457 13 2328 14 2321 25 2939
14836 -0.33479809806598398 4.5154644169283618 -9.2878564231742136 89 92 99 0.88584675711053151 33 3357 11 2585 12 2164
4563 16.55005445252408 -12.638723896946997 61.384777228850922 185 194 207 1.9990230403450524 74 2956 20 1361 28 2187 75 2882
19923 -0.052319300266383505 1.6558889586405521 0.54586355258229469 49 53 53 0.90088652000662639 16 2161 63 255
14463 -10.05478044179482 2.3786340348857293 -9.5255248705532622 141 157 157 1.1726489433841412 10 1708 32 2865 33 2950 11 2089
4190 2.8917934261300942 -7.080200315049944 13.510705603955261 137 126 133 1.6175996974281883 5 86 20 369 29 627 79 1974
14839 -0.59238910286743485 4.4127958110789463 -8.8016145766329856 139 139 141 0.59298055078743717 33 3367 11 2591 34 1512 12 2160
19926 -11.160909387783649 -7.6958301298326166 -5.6999627303528833 134 140 137 0.77602217961830722 58 969 63 294 64 2249
17569 -0.022242231328210835 1.7228407801648777 0.57431771180634927 55 58 73 1.5933199305519781 11 2954 12 2478 34 1667 62 2862
14840 -1.4912900073534552 4.3658202800322572 -8.039478603518134 92 88 89 0.71657398039358289 33 3400 11 2592 34 1513 12 2165 15 2294 13 2189 25 2566
4567 13.007747162859948 -6.039318792122196 37.273242048631595 58 65 74 0.7797514021474502 74 128 20 1597
19927 -0.012128049080024616 -0.08701607865706 0.24351669423874361 38 40 33 1.4256170092933551 33 2025 58 3186 25 1584 63 320 57 1775 62 1278 26 1837 64 744
17570 -4.1255962156676 3.5381652019057146 0.39103025117738782 240 230 229 0.51240127373773492 12 2599 15 2492 34 1977 13 2353 14 2326
14846 -4.2134347891983754 3.4945752308838216 -3.3181977517512897 90 81 82 1.1983593573576699 10 2392 33 3635 11 2613 15 2163 13 2051 14 2056
4573 13.794427385846998 -3.2162736012388735 44.470971165051125 249 247 248 1.7847417373739507 5 1904 6 1597 20 1838 6 1588 29 2012 29 2016 28 2591
19933 -11.172351826619959 -6.744124223114099 -5.6374395598740321 115 125 137 0.76936574103001087 58 624 63 377 33 405 26 57 64 547 59 2491
14847 -0.51216932033610296 4.2832344656191355 -7.9560142966346685 78 78 86 0.62543328684579202 33 3426 11 2614 34 1546 12 2196
19934 0.020086248411531941 -0.0292323004464024 -0.025146754149807816 39 40 37 1.0104623316172339 68 345 63 419 62 315 26 1856 64 2789 69 1552
17577 -1.5173782131693205 3.7819210530231593 -3.142489545085505 90 84 84 1.0511219634132347 12 2485 13 2409 14 2407 16 2365
14849 -2.2088491756103457 4.1859206027733276 -6.5416079966860066 107 103 110 1.0964604271991572 11 2616 34 1541 12 2194 57 2682 15 2287 13 2180 14 2183 25 2624
19936 -11.632201282005029 -5.4974904069189181 -5.2777462914681275 119 132 141 1.5761560428808252 58 293 63 442 59 78 60 1587 65 1085
17206 -2.4089410374342015 4.385753760685013 -8.2142482446669973 123 109 108 0.51459661428850489 12 2116 15 2197 13 2090 14 2114
22293 0.93714752524261291 3.0050705620822891 2.8841140500621982 88 88 81 0.015536765046025571 68 1355 36 951
14851 -1.4088113068508203 4.2814477281610719 -7.3756772080716519 163 148 151 1.0498791584190617 33 3452 11 2618 12 2197 15 2321 13 2224 14 2230 25 2617
19938 -4.3768602312912828 -0.4183907167733798 -3.4887323642064048 109 65 71 1.1868895256995751 33 2003 63 452
17581 -1.5101752819950274 3.6153017020667897 -2.2717520419584947 99 93 95 1.7556362654692124 12 2533 13 2436 14 2428 16 2366
14853 -0.62539723568838257 4.2634959835271147 -7.6817770317525804 85 84 90 1.3907364700349316 33 3449 11 2624 34 1557 12 2213 15 2382 25 2638
19940 -10.659623439440283 -5.198619254417582 -5.1677574826994865 25 33 44 1.2349356316434983 58 327 63 463 26 264 64 2487 33 657 59 1019 65 1080 60 2170
17583 -1.063157409299069 3.6716542094901965 -3.0544120207292411 113 103 104 0.71815209154956172 15 2581 13 2443 14 2435
14860 -2.0129512089998038 4.1764520603599804 -6.1603990279278911 98 96 101 1.120724473622891 33 3544 11 2639 34 1589 12 2243 57 3394 15 2333 13 2231 14 2229 25 2659 58 3062
19947 -11.834572684710484 -4.3702249844838246 -5.4979244800270681 190 206 221 1.5573082876065625 58 1581 63 514 64 1221 59 672 65 2065
14865 -4.2922939574929515 3.7241642022103507 -3.3730604708220748 56 56 61 1.7230162196563608 10 2476 33 3684 11 2653 15 2213 13 2095 14 2101 16 1977 63 326 35 1005
4592 18.154536346796117 -10.629565782830023 28.240403889315409 90 103 60 1.0543601955170787 4 660 3 143 28 1802
19952 -2.819473876385727 2.9105317151077923 -0.38304457733178404 68 74 72 1.9931150504227679 16 2064 63 554
17595 -1.1415359053210781 3.3249457210643056 -1.0084812299820325 108 98 97 0.26036444697926453 15 2674 13 2513 14 2504
14866 -0.71411869195677125 4.1953924235254956 -6.9537839417976999 135 121 120 1.132212019186515 11 2654 34 1609 12 2253 15 2405 15 2421 25 2685 33 3509
4593 5.487795067189098 -4.6350741726038462 11.129812703639741 59 59 47 1.6250101434335169 41 125 3 156 2 423
19953 -25.252113426113027 5.1815735092199438 -11.179441719209057 166 162 154 1.9868477191315652 58 357 63 565 64 86 62 824 57 497
17596 -0.38685741730390977 2.3030543821187908 0.69975741404649616 178 179 184 1.0882161409842592 15 2682 13 2514 14 2509
19956 -10.861135757478994 4.3578699022025731 -5.2137352520861153 201 198 182 0.71832068031959295 58 115 63 599 62 354
17599 0.13244326226087152 2.2367033767538516 0.37581199993248027 55 59 71 0.90348010360570696 57 3266 13 2549 14 2546 62 1366 35 1354
19958 -11.643700794297596 -5.2213528529482423 -4.329271851997488 90 94 105 1.4346275827105583 58 2943 63 617 64 2214 65 1626
17601 -0.87577373798903901 3.3889986569944712 -1.0943114427362024 91 82 83 0.33620047468707098 15 2727 13 2562 14 2558
14873 -0.18083238947722383 4.2757355989312895 -7.3841006751445573 103 102 107 0.92099328519343426 33 3492 11 2666 34 1622 12 2280
4600 14.776089558584252 -8.6069168751304428 25.756380680136559 15 18 3 1.2976081616518145 4 819 3 377
19960 -11.562536146693848 -7.089465771805278 -4.5683653824675812 99 115 136 1.6441002681933354 58 914 63 631 25 39 26 86 59 2392
14875 0.36874374422203399 4.3121618430919533 -7.7450162955202844 93 93 95 1.9672964315420189 33 3481 11 2671 12 2295 34 1639
4602 9.9559835887079959 -6.2403569387186897 18.83765553012039 44 47 27 1.6123452605545288 4 851 41 3709 3 404
19962 -4.6058019783574533 -1.0028875075775963 -4.0383278557830646 94 104 105 0.64120652661315169 63 635 26 673
17605 -0.091793910341165547 2.2881851554004293 0.80549482361931102 0 0 0 0.28803072669859947 34 2170 57 357
14876 -1.1347335047841414 4.1623954142543464 -6.3592561773226866 85 86 88 1.1529063262911565 33 3547 11 2672 34 1626 12 2278 15 2398 15 2406 13 2296 14 2305 25 2720
4603 7.7733336586760569 -5.6673764600879197 17.624556334000875 49 52 41 2.04865228299892 41 3649 1 605 2 723
19963 -11.671480049807473 -6.5778083226433228 -4.5160614753162625 29 32 26 1.8269256157092015 58 2711 63 636
17606 -1.7029409226833452 3.068831428293668 1.3196840654310362 89 78 76 2.1585052729305101 34 2293 13 2611 62 2771
14877 -1.8167554285705225 4.1044350090178208 -5.7649317398308009 72 71 79 0.95503871466803569 33 3577 11 2673 12 2276 15 2371 13 2252 14 2257 25 2707
4604 7.9106898293804893 -5.398201098268208 16.512194416131599 67 74 59 2.1341600199105142 41 1613 3 463 1 594 2 716
19964 -4.4030167497994057 3.6459254939215371 -1.4473256320829961 145 150 144 1.3706782134984881 57 2919 63 647 62 1186
17607 -0.65500814569749566 3.4052273763616672 -1.0970450436867409 122 93 85 0.6008703168413182 34 2121 13 2613 14 2600 35 1585
14878 -4.4632976074380633 3.8591469550390416 -3.2592038978420255 76 64 63 1.4878081878337006 10 2555 11 2685 15 2244 13 2131 16 1989 63 921 62 447 35 1017
4605 21.73720739636703 -9.4749686832841586 31.823646607427925 56 60 52 2.0155804212868289 4 1011 3 527 1 753 4 1010 19 1683 28 2047
19965 0.039712569070136997 -0.19077621510694856 0.10863597669973125 49 48 43 1.5189298831291369 57 1111 58 938 63 649 14 424 25 1239 62 1042 26 1714 64 484
19970 -27.657350450088909 2.4062337322788503 -16.622142023580036 83 95 67 0.41259347510025568 58 787 63 700
17613 -0.041796713185475683 3.6301085858880153 -2.200192828661597 98 94 91 0.37650668049637709 57 2901 13 2657
14884 -0.64199397250835288 4.1431714528519485 -6.3491544858918481 127 118 120 1.5231155822714151 33 3570 11 2698 34 1649 12 2316 15 2470 13 2342 25 2755
4611 15.446609846927638 -7.7985979366657956 28.030003821181872 24 27 14 1.9597809594995976 4 1079 3 659 1 818 2 910 19 1709 28 2077
19971 -12.791685750461699 -4.2207308810741466 -4.8227285798239556 144 146 144 0.88455241746315172 58 1994 63 714 64 2958
17614 -3.4066132763032968 3.1416685276311918 4.0111495430072175 149 149 147 0.83054601000652151 15 2839 13 2662 14 2625
14886 -1.4928306899755446 4.0992433411704958 -5.5971728527573879 119 108 112 1.0836156533336805 33 3611 11 2703 34 1650 12 2311 15 2413 13 2298 14 2307 25 2756
4613 15.312109736249957 -7.5838793244050269 27.887085697328455 22 24 11 1.1899640174714143 4 1104 3 711 1 844 2 968
19973 -8.8382172024024577 4.3430566381649278 -5.5800996357070085 132 133 128 2.4692130957865985 57 717 63 731 62 1368
17616 -0.15565764874195465 3.4106174419549053 -1.1602343872285676 75 56 52 0.8048655189359627 15 2849 34 2174 13 2691 14 2679 35 1730
14887 -1.1260981267491184 4.1025341889228564 -5.8462700394647626 101 89 93 1.2814831832926505 33 3599 11 2709 34 1655 12 2310 57 1884 15 2442 13 2319 14 2324 25 2765 58 1163
4614 23.124723234827503 -10.479870081330352 39.198483390363528 32 37 5 0.75374543840742236 4 1135 3 712 1 883 2 983 19 1751 28 2092
19974 -0.1177835154679471 1.4286314796700057 0.59569804477264576 152 157 153 0.83851911100958443 16 2036 63 736 62 1944 35 707
17617 -2.1712075212143009 3.0415155604055379 2.7788321856424996 143 161 175 0.34573116348722305 15 2875 13 2697 14 2654
14888 -1.6092375346185026 4.0504798978591658 -5.3515941492156633 125 116 119 0.83117346031898431 33 3627 11 2710 34 1651 12 2312 15 2407 13 2289 14 2296 25 2766
4615 15.929521110177825 -21.049896822529643 76.607284513024865 147 153 174 2.5326930584743068 41 80 20 965 3 720
19975 -23.821891376859 4.5270764550745843 -8.4166457926758582 202 195 177 1.7682916670692563 63 747 62 702 35 611 57 2780 64 2631
17618 0.23278169704502161 3.6041957212361555 -2.1644645960259323 93 82 78 0.12843537142749467 15 2861 13 2704 14 2702
14889 -0.094432336346119833 4.1888852646980679 -6.7218625263028864 118 116 122 0.91975745070893788 33 3559 11 2713 34 1663 12 2323
19976 0.04669856284683635 1.2498507827886234 0.10660240423107309 30 33 32 0.91657992645082564 16 1946 63 753 62 286 35 537
14890 -3.5769646776771831 3.8261084062838648 -3.3987113141825005 62 62 64 0.53345219099067009 10 2510 11 2714 24 3451 14 2187
4617 23.16830729912477 -11.170579125413573 42.243560175279789 16 20 5 1.8064748195756331 4 1145 3 731 1 899 1 881 19 1738 2 992
19977 -6.5717807661451211 4.1915918992384595 -3.6505561200791918 153 151 138 1.4134617222868286 58 2917 63 755 62 2362
17620 -2.8263123362679532 3.2485725185967338 3.3459699018620945 82 75 67 0.25368826333097322 15 2888 13 2709 14 2662
14891 -4.3288184363244158 3.8344024669812091 -2.9835945088380478 123 99 95 1.6296463120376048 10 2603 11 2715 15 2265 16 2008 63 2119 62 810 35 1021 16 2010
4618 14.298507958323926 -6.8323175103478642 25.801997836996794 29 30 20 1.286198581663492 4 1134 3 742 1 912
19978 -8.3587176972394754 -7.5917436854117764 -4.1594301142443557 144 176 216 1.4842203134961671 58 1114 63 759 64 2083 59 1241 60 1283 61 531
17621 -0.29448894470212694 3.1711062451905394 -0.22771039985600297 78 79 81 0.075238010387995977 15 2877 13 2713 14 2694
14892 -6.0883791793492978 3.819746226795814 -1.8071523537305922 136 136 148 1.5217975275757161 10 2864 11 2716 34 1629 12 2287 13 2092 14 2087 25 2749 16 1932 35 934
4619 6.7748319704754225 -4.2557508201326337 15.847197833020145 71 71 104 1.2559717095810567 41 429 3 764 1 840 2 991
19979 -13.966927025269463 4.3901321935226196 -6.2922821747212909 149 148 141 2.1117757576692147 57 1266 58 2238 63 761 62 1068
17622 -2.2597952831997166 3.0685065577180368 2.9927147716592253 121 125 126 0.22876242349766129 15 2897 13 2718 14 2673
14893 -0.56531733403748174 4.1179763455970422 -6.1796596244292719 83 80 84 1.5460873342176391 33 3594 11 2717 12 2324 15 2480 15 2490 13 2354 25 2779
4620 5.1333792525795205 -3.0796101209730544 11.182325472360994 24 28 31 2.1689626590750613 41 1717 3 776 1 827 2 999
19980 -28.030918798333833 4.1016029117887731 -12.711474935527198 82 77 58 2.3906984214570302 57 3688 63 766 64 564
17250 -0.4716805162693084 4.0009405977692829 -5.035089963115686 75 75 77 1.4942830596346326 12 2415 15 2560 13 2434 14 2434 25 2920 33 3733
22337 0.12021074880568099 2.9134203714296891 0.14173319279483884 102 109 122 0.076136938690167758 68 1540 36 1441
17623 -1.6523051729442542 2.9249885343027873 2.4395695155489001 88 73 76 0.69632874414244805 15 2895 13 2721 14 2677
14895 -0.33469579876560518 1.4669383119198633 0.6270898097011629 133 121 131 0.60739406876224666 10 2321 11 2726 34 1405
19982 -2.5623175670140834 3.280172219607667 1.0181106043108814 100 79 68 1.5756769642977015 57 1160 63 807 62 1772
14896 -1.1236632571097349 4.0866823879236085 -5.5942113043285593 123 108 111 1.3083440140229152 33 3631 11 2728 34 1675 12 2331 15 2464 13 2333 14 2341 25 2786
4623 5.2779570274997862 -4.1479751017017934 17.061425037844636 137 89 94 1.9875180568670983 4 1177 5 1222 3 875 2 1079 1 916 28 2164
19983 0.02581859183686485 -1.668122027971868 -0.26741579273361193 64 68 67 1.1279969138689852 58 645 63 839 64 377 59 295 65 1252
24697 -6.5646187461893941 -10.777124661031309 -2.3983778014278467 101 105 114 1.1832507360279092 60 25 55 65 59 390 61 1291
14424 -17.833374083792179 0.56062632411851521 -22.326850341762793 217 223 235 1.1883954325184274 10 1179 33 2243
4151 0.85470652602276265 -8.6914132619197861 14.237616283814898 165 168 172 0.2218288416696016 74 821 20 161
17626 -0.0068245529599058243 2.5899059306631544 0.74442151867688577 72 75 91 0.22362472477432591 15 2893 13 2726 14 2703
14898 -0.8375573775249735 4.0862014745031239 -5.7941295040860696 88 85 92 1.308364670413863 33 3615 11 2731 34 1678 15 2474 25 2797
4625 14.186982520248501 -5.9696037507897275 26.798143266863207 20 19 15 1.3495296551873999 4 1294 3 964 1 1081 2 1210
19985 -4.3115400442517116 -0.59996404247936652 -3.9425103905123988 207 213 211 0.77191383856888562 16 457 63 896
17628 -2.181272245052928 3.0237297980705549 3.0559023586168474 137 144 150 0.39211488356821839 15 2912 13 2732
14899 -4.1882230472264963 3.7967977619084934 -2.7263279770982289 100 85 86 1.8370291450864482 10 2636 11 2734 15 2293 16 2021 63 732 62 1066
19986 -10.852409018219992 -9.1442170994659744 -6.7175511756682704 137 163 178 2.1288589057635918 58 724 63 928 59 834 60 500 61 2772 64 3103
17629 -2.4420723920496226 3.2968180165879257 2.8847539858883109 66 67 72 0.59513433388026671 13 2737 14 2686 15 2911
14900 -0.45947299902194577 4.0955353529631973 -5.9813574092179085 85 86 91 1.9959003041248644 33 3613 11 2739 34 1684 12 2350 15 2509 13 2377 25 2814
4627 0.9785817312148708 -9.2942469918925834 41.436428769479669 121 129 140 1.5654302431389073 5 1248 3 978 4 1194 73 1165 1 945 2 1159 42 2656
19987 -4.4357851744538825 3.770417894465997 -1.9774077495996512 32 30 19 1.4402561109851311 58 3356 63 934 62 2266
17257 -1.4176122655168351 3.5805053966488223 -2.0473515820813355 114 101 101 0.65801899471877745 12 2570 15 2605 13 2457 14 2453
22344 0.080638375262762116 2.9254665821027417 0.024885240953666229 64 67 76 2.0092360197834296 37 1622 68 1471 36 1479
17630 -1.7269692239514618 3.0457702670472688 2.3966151053191647 79 71 71 0.64904342505415757 15 2920 13 2739 14 2696
14901 -0.24750081991795608 4.06876200880067 -6.0292534993514266 97 92 96 1.0084654369718566 33 3610 11 2743 34 1687 12 2355 15 2514
19988 0.047806034772477995 -1.7348588316277964 -0.28551775132884638 45 51 49 2.0462495764866548 58 885 63 937 64 853 59 635 65 3263 69 407 70 208
17631 -2.0182368740944701 3.0328819630973864 2.8455109791906787 76 75 83 0.41854357006816789 15 2923 13 2740 14 2688
14903 -0.94201849666324189 4.0640140667057079 -5.4951391478590228 78 76 81 0.95345770678589625 33 3654 11 2745 12 2345 34 1693 15 2481 13 2358 14 2357 14 2369 25 2820
4630 -0.016473446071754289 0.062432397315482606 -0.030593798447179899 46 46 47 0.84718096214455496 41 3067 3 1013
19990 -32.348518643247445 5.1259611500173961 -16.820286317736841 81 74 53 2.2694529769026905 33 3066 62 364 57 2458 64 1681
17260 -0.24053223726982745 4.0073246076345468 -4.821510907580171 84 88 89 1.0282572542491719 12 2466 15 2619 13 2474 14 2477
22347 0.46468309160682453 3.2355282259550098 0.25799631539003481 123 118 112 1.2077458772761609 68 3755 36 1619
14904 0.78871209788770902 4.2372102286725664 -7.0183478131325012 114 114 116 0.24169561411231877 11 2752 12 2373
19991 -10.426421860358445 -7.7417504808739261 -7.3709232558348106 138 148 159 1.2203050486510225 58 1798 63 966
14912 -5.2295828849753354 3.8504454722958723 -1.9121681919759606 85 88 95 1.3246094681478353 10 2836 11 2768 34 1691 57 3304 25 2810
4639 31.696741588331911 -15.755970967945814 84.551506750351422 82 74 85 2.1441007297443471 20 1471 2 1397 3 1158 6 1250 1 1215 79 4051
19999 -10.581463189417319 -7.9596538971745163 -4.2009582432900565 76 86 99 0.96801637761981174 58 248 63 1041
24713 1.1921053233015679 -9.3959101449259066 -8.6233406892385034 173 181 192 1.8797831587257332 60 1997 55 520
14440 -34.097984404210429 1.6862317932967119 -29.816500776312171 198 186 176 1.2753685805605328 10 1326 33 2432 11 1711 15 1061 16 838
4167 -0.57806101942703081 -1.1057282672620889 -0.1840656125668792 57 53 44 0.41261392328491464 78 3988 20 234 21 43
17642 -1.6081770790346184 3.0152370814476641 2.5810973334939997 70 68 69 0.66479585523909168 15 2964 13 2789 14 2730
14916 -5.4939323869968977 3.768835866551806 -1.5498123046097152 122 130 141 2.1632207847871996 10 2892 11 2773 13 2138 14 2138 25 2813 16 1956
4643 20.601276927373842 -14.515812049875299 80.576927356158393 190 206 216 1.5749221616962841 5 1613 3 1178 29 1616 18 1574
20003 0.10482122918154599 1.7577275772614998 0.32841774052184963 95 99 102 1.2142147389216114 16 2237 63 1088 62 1684 35 979 68 3841
17646 -8.3666024402873962 3.8427644146801923 -7.5834595092912478 49 49 49 1.8160808537837931 10 2066 24 2743 32 3298 33 3241 11 2389 13 1809 10 2065 15 1872 14 1806 16 1755 16 1756 15 1873 35 783 35 785
14917 -5.6473188280018958 3.8304548197611994 -1.5977060966237764 163 173 185 1.4069651689111098 10 2902 11 2774 34 1680 25 2804
4644 17.418771426716077 -13.381015437581604 77.015641026775555 132 149 167 1.4064248662622334 5 1618 41 3205 3 1201 42 3877 1 1214 2 1417 2 1402
20004 -4.3473133384133309 -2.770340276696313 -4.2148637554752701 127 132 135 1.4330619374659099 33 743 63 1093 64 490 65 1029
17647 -9.1300537665217902 3.8523781456317954 -3.6268503713983122 78 82 90 1.0021296102212351 10 2535 11 2508 13 1917 12 2053 34 1415 14 1901
14918 -3.8100232612374838 3.7509666976811005 -2.4414961708634664 89 80 81 1.3618417961189255 10 2669 11 2778 15 2331 16 2062 63 1614 62 642 35 1056
4645 5.2147862291134608 -1.6624217509880586 11.879974056392651 128 137 144 1.4003944306629887 4 1500 3 1246 2 1462 1 1257
20005 0.054493463133530554 -1.7328971538550102 -0.21501645831655813 54 59 57 1.1900306271496133 58 29 63 1094 64 914 59 1927 65 2052
17648 -27.467052398599773 3.6816861286851559 -2.5905331593153615 196 181 178 1.5524015122271719 33 3300 13 1637 12 1815 14 1636 25 2194
14923 -0.59505506749345616 4.0377134216161332 -5.2985574808339022 112 112 114 1.4850384477375891 33 3691 11 2788 34 1726 12 2387 15 2534 13 2398 13 2408 14 2416 25 2891 25 2877
4650 4.8973489921652655 -10.03571167479363 72.160675955307283 0 0 0 2.5875633228222372 5 1762 41 1497 20 1592 42 1431 73 1919 3 1385
20010 0.041977031077393472 0.033982979379715887 0.070612638138371445 174 179 175 1.8181857052642716 16 1097 68 984 62 585 63 1128 26 1979 64 601 17 1871 69 2164
20014 0.038055169380189616 0.14580408384014912 0.056258785549054925 75 75 66 1.2602322873715359 68 2880 63 1170 62 1771 69 2120
17657 -2.6389496165574386 3.2122500838616372 1.5826012671260012 65 62 65 1.662244867815498 11 3351 12 2836 13 2528 11 3357 12 2840 15 2702 14 2507 16 2247 35 1128
14928 -1.3615699535891823 3.9082149993868951 -4.3475978096004759 61 60 68 1.1925636522117782 11 2797 34 1737 12 2389 33 3761 15 2497 13 2360 15 2484 14 2360 25 2900
20015 -0.11653568622202463 0.48957170099458414 0.40627524992647862 0 0 0 1.1477713325228742 57 1882 58 1924
17658 -0.57515356450307276 3.747974361277957 -3.275701678213522 109 100 97 1.6084366198638953 12 2558 15 2648 13 2497 34 1888 12 2543 14 2496
14929 -5.8660810886472055 3.5169840162147605 -0.46866160842021148 138 135 141 1.692883945674708 10 3062 12 2354 15 2246 13 2126
4656 8.0957190932114518 -6.7139374053670355 58.564382875044643 95 78 60 2.0241648139707875 5 1817 3 1448 6 1487 20 1700 6 1473 1 1372 2 1582 2 1597 3 1454 1 1392 19 2157 29 1899
20016 -0.030532014083088223 0.26040599762259226 -0.045227494821989025 75 75 69 1.4710549254980809 16 1359 68 619 63 1184 62 1464 26 2133 17 2023 69 3645
17659 -0.75459123951793416 4.0147461278278156 -5.1170459590144546 118 97 96 1.2264853263415536 33 3705 11 2793 13 2395 11 2785 34 1727 12 2383 57 1689 15 2522 14 2403 25 2886
20020 -0.033554198728280721 -1.1059078390028767 0.040647590125111495 53 58 54 1.0842353844172203 58 1905 63 1212 26 235 64 1230 59 3335
17663 -2.0412729442738233 4.3310751100258384 -7.4102702179819895 132 109 98 1.6944673010768223 10 2135 33 3441 11 2605 9 1886 34 1522 12 2179 15 2276 13 2173 12 2177 15 2282 13 2172 14 2180 14 2186 25 2586 33 3444 23 2509
14934 -0.27969686549508077 1.5657225974071471 0.64962490345120683 160 150 161 0.61096678867172816 10 2399 11 2806 34 1485
20021 -9.0386942479409118 -5.8649121893878693 -7.2778049510431897 43 45 40 0.68987557919406128 58 1638 64 444 65 2251
17664 -4.2186703562108114 4.7222662106477742 -11.101102839360806 127 112 111 1.7768405440779202 12 1973 15 2022 13 1945 10 1990 11 2448 34 1379 12 1990 14 1944 14 1957 25 2306 13 1956 14 1969
14936 -5.2318867485975424 3.9167960782482059 -1.609594113552929 84 88 100 1.9575725999880718 34 1732 58 2657 63 734 25 2862 62 726 11 2811 57 2885
20023 -0.079294041102108456 1.3093993274053659 -0.009264993240826587 148 154 151 0.17406800741185835 16 1944 63 1240
20026 -11.728083582044173 -7.2238160612230011 -4.8872019451785969 41 40 38 0.76928747976987177 58 2637 63 1264
17669 -9.8839369591492385 -0.44034712221217598 -17.794100619171395 41 41 31 1.2308203549349732 12 634 15 498 13 502 14 477
14941 -3.6340777670836562 3.7314095096424573 -2.0811430257412513 122 103 99 1.1869248896575859 10 2738 63 3887
4668 -10.019155053808195 -1.7357622862438 33.902256740229276 109 96 96 1.7616507334458118 4 1706 5 1958 3 1549 2 1676 37 187 28 2551 69 2490
20028 -4.3561407503066931 -0.79329770664723298 -3.8637001115377898 150 160 160 2.1021899743687995 16 383 63 1268 26 739
17671 -17.597382573948313 0.73204387481289745 -23.930525050589942 211 226 246 0.16551725861214364 11 1521 13 857 14 831
14945 -0.046396743950799769 3.9797903149997933 -5.1844370411976115 93 92 97 1.4545832705420398 11 2832 34 1777 12 2433 15 2603 33 3728
20032 0.015467429553100469 0.50766227339157133 0.076279862030852255 22 24 21 1.1472884189693167 16 1585 68 1555 17 2063 69 3787
17675 -5.1049557265074421 1.0435084798984329 -9.8615535941217995 95 89 91 1.0758752217255276 13 1043 14 1017 25 1424 57 388
14946 -3.3769347502223868 3.6308640344221215 -2.0199946461133793 102 93 94 0.73545639055817713 10 2724 11 2834 15 2386
4673 -10.819940052116868 -1.0369623127750887 31.84505266050348 132 117 114 1.8050141379497298 4 1745 5 1998 3 1575 1 1473 2 1700 19 2312 69 851 68 1159 17 1959
20033 0.035233416574541584 -1.7062194979511838 -0.27708690179701828 33 36 35 1.3337528662255813 58 923 63 1339 64 3112 59 1875 65 2315
17303 -0.45750496409644259 2.9645766447113351 0.76618315014995075 99 97 100 1.3963158259641588 12 2971 15 2932 13 2754
22390 -0.36780628334845938 -8.8106923630544927 15.017938118662213 144 146 149 1.0962253994290818 19 566 27 665
20035 -65.370573232463457 4.34723206143995 -26.847547794008378 57 61 57 1.368712124355554 58 1546 63 1347 26 1507
17678 -12.784926757439166 -0.65712885174769631 6.0370000545645306 202 209 185 1.7763802790024064 1 766 13 1210 14 1176 2 1212
14950 0.84422254116274376 4.078670840614242 -5.8842337250893681 131 126 123 0.70611513471115761 11 2851 34 1798 12 2464 24 2963
20037 -10.365486561258844 3.1291852539100224 -6.3372567972065639 117 120 120 1.5443219328893827 57 3270 63 1374 62 1032 35 640
14951 -0.14121961343496658 3.9835939037403438 -4.8736179848381971 175 160 157 2.0351268806087526 11 2859 34 1804 12 2456 12 2468 15 2611 15 2618 15 2628 13 2478
4678 6.1614881920593527 -0.85134605272760877 28.736534213084074 247 248 250 2.1522807298282767 5 1960 3 1599 1 1565 2 1771 18 2021 28 2698
20038 0.008959017880808582 1.6377507714291382 0.10350048459451287 72 76 75 0.85832145270023485 16 2135 63 1378 62 730 35 875
14952 -0.29573007679677882 3.9406929140983848 -4.6827783014794049 141 122 124 1.0134904681634609 33 3788 11 2860 15 2607 13 2465 14 2464
4679 9.8378428274734873 -0.49887604747401926 21.945702815681344 72 76 76 0.42188452659435377 4 1818 3 1601 1 1581 2 1787
20039 -0.035922238010297668 -0.85280184622408362 -0.23377034612818751 20 25 20 1.4536928890666978 16 70 63 1396 26 432 64 2975 17 447 69 2888 70 4025
14953 -5.0303264630692262 3.8635544687766101 -1.2194527771102686 66 72 82 1.1987118902313536 11 2865 34 1771 12 2409 57 3586 13 2233 14 2209 25 2915 62 1850
20040 -11.825322274959534 -6.4748631638655194 -5.3243672128203974 180 198 210 1.9782490500340419 58 1332 63 1402 26 187 59 3075 60 54
17683 -0.42749821233741248 0.58688783464659888 0.49338834415825006 149 138 142 1.305008595851574 12 1688 13 1557 14 1559
14955 1.2566041798115142 4.1399670015104633 -6.1830188476686976 105 106 110 1.4238764910794213 10 2176 11 2870 9 1746 24 2947 23 2309
4682 18.550455557065977 -0.40816011221906734 23.461884287185725 98 114 67 0.98011220431827895 4 1850 3 1618 1 1634
20042 -11.303916251739551 -5.9064550453281104 -5.2601860179733562 88 95 114 1.935895111398555 58 2264 63 1407 26 217 64 3162 59 1137 65 2766 60 937
14956 1.2337278479718083 4.0447115542592833 -5.9530450893699713 98 100 105 0.068610153209053629 11 2871 12 2499
4683 18.363329565178965 -0.29812271303659377 22.307696804247986 102 113 71 0.68469088561365699 4 1853 3 1625 1 1643 19 2424 28 2803
20043 -26.664542681220961 4.7479101772775252 -10.106964078613007 40 41 33 1.8028447768939788 58 2827 63 1411 62 2078 64 1806
14958 -3.4051770924239859 3.5876061578216523 -1.6226982977711837 128 107 104 1.1201914763765994 10 2808 11 2877 34 1779
4685 -9.3353958549594172 0.45471924501451677 22.962966547468042 82 72 71 2.3486507058081831 4 1814 41 582 3 1632 1 1522 2 1759 1 1532 2 1760 69 1824 68 751
20045 -0.070859153897290375 0.84023285203376818 0.00026817863579822629 59 64 59 1.1409662342249907 63 1469 62 1411
17688 -0.85538579965261885 3.3443689073654546 -0.84194840548485517 97 79 75 0.67553392979996074 12 2762 15 2750 13 2588 14 2570
14960 0.82583509340426575 4.0091365177665628 -5.4405421952919992 69 70 80 1.3493655224115972 11 2885 34 1827 12 2510 24 3041 33 3753
4687 0.059177753132102197 1.011652908968196 0.36997482848876995 119 122 130 0.49662124769250371 41 1041 3 1640 1 1556 2 1774
20047 -4.2834029544392012 3.7177244477040925 -2.3207553940824077 80 75 63 0.61505250631044328 63 1498 62 600
17690 -8.1326818867419401 -3.3584465610883587 -10.983430117544888 61 56 34 0.99669551796774891 13 62 14 14 25 535
14961 0.13962119932673894 3.9489106283987088 -4.8002023199421346 74 73 79 1.0639872466011173 11 2886 34 1823 12 2501 24 3161 57 383 15 2654 15 2665
4688 16.611795829032445 0.11995890044144902 20.111737660459998 108 116 75 0.45623351069389279 4 1867 3 1642 1 1662 19 2449 28 2838
20048 -0.12750601282116292 0.58781883262703205 0.44949009045671273 62 63 62 1.0402048095026555 16 1666 63 1508 62 1928
17691 -4.2443186442471399 -2.066475343841669 -10.018654629899109 47 56 34 0.45280418668714123 12 68 13 61 14 17
14963 0.33267015934321348 3.9262008766241241 -4.877988748079007 81 80 86 1.4348874568924235 11 2891 34 1828 12 2504 24 3136 15 2673 33 3799
20050 -0.025001675851196579 -1.1460244503923389 0.031842258159133371 55 55 49 1.4105718308634503 58 2327 63 1521 26 195 64 2286
14966 -3.0470282060371825 3.5165810402939957 -1.4203562903931939 77 76 82 0.10687090341815186 10 2818 11 2905
4693 11.533993746455971 0.75468105749805492 17.297795122537433 99 103 102 1.3675062937087015 4 1890 3 1687 1 1674 2 1882 19 2475 19 2476
20053 -0.049700898327350453 0.88051725534023939 0.01391609156029504 84 90 86 0.95578733999494647 68 3304 63 1549 62 2153
17696 -8.1091654046340214 -2.805124581094252 -18.601307123527999 34 38 16 0.25763872728784293 57 3050 14 68
14967 0.75122399807640627 3.9754778017069805 -5.0774744031305303 124 118 118 1.5936032374031575 11 2910 34 1858 12 2528 24 3101 10 2254 34 1861
4694 12.978958238040541 0.71668261170503911 16.676110359369844 165 168 166 1.2959412096657217 4 1893 3 1689 1 1693 2 1895 1 1692 3 1688 19 2478 28 2896
20054 -5.3159681856804832 -1.3700135117514527 -4.1661484132172539 107 103 106 2.1840332741253468 57 360 63 1555
17697 -5.8603542205788344 -2.0436406006247143 -12.598865522230231 36 33 25 2.2129535651931276 13 137 57 3033 14 95
14968 -2.935926642339346 3.5964792047438063 -1.6106542623503268 83 79 80 1.2688840370077483 10 2807 11 2913 15 2461 16 2167 35 1150
20055 -24.946867716361751 5.0489027589604039 -9.9385712562692738 82 74 63 1.2928467706763722 58 1715 63 1559 62 814 64 29
14595 -15.856375989870669 -1.4203254058697661 -12.344800915309646 172 192 206 0.089418676543129794 10 711 33 1955
4322 -0.99248571576223354 -4.6666465774553725 48.935169976951549 173 164 157 2.0046358888170306 5 1853 20 1747 4 1652 1 1397 2 1623 19 2173 18 1866 73 2202 75 2512 74 1147 27 2199
24769 -2.3395559551251242 -9.5268345491283828 -11.109685218412023 23 25 20 1.2083781377529716 60 1305 55 2681 59 2379
14496 -3.2654558955140707 4.4398079197633455 -9.2057409650204907 175 133 119 1.5446677667999478 10 2044 33 3298 11 2503 34 1417 15 2101 13 2002 13 2011 14 2010 14 2023 25 2394
20058 0.0050886163401669994 -0.91489217083857743 -0.12966601353832621 44 50 48 1.0856879839941291 16 30 26 367 64 3808 17 407 27 1048 69 778 70 2520
17701 -12.362342919189418 -2.7108735527715337 -27.113258177349159 94 103 38 0.50109126515511448 15 183 57 4044 14 170
14975 -2.3255579149747079 3.5862404642624477 -1.8842668995483904 86 84 87 1.9882408937836431 10 2728 11 2937 15 2502 14 2350 16 2234
4702 8.991346063648896 1.0931704308441832 15.267390067185408 145 134 135 0.68886024710875071 4 1907 3 1731 1 1688 2 1900 19 2495
20062 -0.048538089234781194 -0.14694427494353177 -0.12773000569995011 53 55 52 1.739571201955832 16 751 63 1608 62 179 26 1707 64 1278 17 1664 68 2973
14976 -2.6654469471773465 3.5760438750067713 -1.5654973789479563 136 119 118 1.553574070054091 10 2806 11 2943 15 2488 16 2206 35 1196
4703 12.783601630139083 1.0411201572012858 15.667415264801738 125 133 135 1.2363303890913557 4 1919 3 1732 1 1726 2 1924 28 2964
20063 -11.15839485009314 -5.9970843130053026 -4.1492400359474493 57 62 86 1.5984966114125889 33 464 63 1628 32 107
17706 0.083078863538070577 -0.31773783550117984 0.10072800909486146 46 48 43 0.85702919862513838 12 321 13 330 14 288
14978 -4.8972563919363301 3.3869239649658773 0.32726021192514759 135 137 149 2.0605848603611143 10 3213 12 2479
20065 -4.6991015992329448 -1.0271427249336993 -3.7153330620244391 119 120 124 1.6034250099434437 16 352 63 1642 26 694 64 2443
22422 -0.26222905401714364 -0.74243948136182503 -0.34683269856018717 14 13 11 0.58196014655899853 18 530 27 1406
17708 -4.0930096177815445 -0.77658754943762176 -3.6766742232721645 131 167 191 1.2380058090350923 13 392 15 404 14 359
14981 1.7740014406043498 4.2579146923731361 -6.1433335274628478 82 78 75 2.4579919003090041 11 2965 34 1919 33 3786
20068 -4.5203466856361407 -0.53298333831907552 -3.9782724814920725 164 169 165 0.5820321803392835 16 502 63 1675
14982 -3.0072385638256209 3.5694411756464084 -1.1736620748817037 94 88 88 0.590853516954299 11 2968 58 3529 63 2742
4709 11.67911312066502 1.1642689948225113 10.095046537888225 43 60 18 0.023064713231664744 5 2029 3 1756
20069 -12.011447529098152 -5.9285543714123374 -4.9629181025779214 84 94 88 0.45912778577625046 58 2055 63 1696 64 3023 59 2732
17712 -0.40287610779157929 -0.19059710857270645 0.33408777975782789 89 98 106 1.0259135732571185 12 581 15 603 14 539
14983 -2.5029826353304259 3.4841769017024391 -1.254348074329507 74 72 75 0.28395849322319922 10 2848 11 2979
4710 10.575268103868936 1.3077746020316234 13.414053181835017 131 137 137 1.8305196109281561 4 1937 3 1765 1 1753 2 1950 19 2522 37 21 20 2075 28 3018 38 243 21 1581 7 1366
20070 -5.6174388560358217 3.5385174292584969 1.5599863020765457 190 194 194 0.63412079652271514 68 3227 62 1989
17713 -3.2389945648918124 -0.47858320560410433 -1.2608549195540526 143 173 199 1.5218010570995477 12 596 14 556
20071 -3.1053986111120158 3.5188110958461776 -0.85518430758180441 72 77 70 1.2057845088250403 57 3472 63 1703 62 1434
17714 -0.081041334821505204 -0.069173988448557405 -0.15672573457401018 83 70 77 1.3502658570874591 13 629 15 680 57 1804 14 590 25 1474
14985 -3.0421997696613254 3.4732366027475581 -0.85790654021222346 72 71 79 1.3364648942812885 10 2939 11 2985 34 1878
4712 8.8181154337470158 1.3957808774866496 13.840098485935385 105 110 114 1.3572476540295704 4 1940 3 1769 1 1729 2 1935 28 2992
20072 -0.00094999770343269312 0.85443678425621838 0.065259422796328653 69 73 69 0.74348131856162114 16 1792 68 3576 63 1705 62 685 17 2163
17715 0.0016833279529566325 -0.07635312960955308 0.25447511440358006 26 28 27 1.2590607189488132 11 1073 15 690 14 616 25 1628
14989 -3.019790891816402 3.4882980490317603 -0.67812262726020123 71 75 78 1.4608826248410767 11 3008 34 1904 12 2549 57 1414 16 2169 63 2490 62 1496 52 2149
4716 11.231064109407164 1.3903262266523804 11.793910308442543 108 117 116 0.89828306109315392 4 1957 3 1782 1 1788
20076 0.035771039193359833 -0.26528734658972286 0.067838942468259084 28 30 26 1.8356412057212301 16 628 63 1750 62 780 26 1563 64 1246 17 1533 69 2662 68 657
14991 -2.4032101462902928 3.4416986850587965 -1.0160648308238596 91 85 89 0.48410026696393388 10 2880 11 3016
4718 9.534847117290596 1.4301348071052233 12.231094373210913 137 142 139 2.0717970641719248 4 1955 3 1785 1 1764 2 1964 19 2535 19 2536 20 2092 37 47 38 275 21 1594
20078 -10.945747146724617 2.6694531986996464 -6.7320533295273588 50 54 57 1.6196742730561597 16 1548 58 2319 62 1357 64 2446
14992 -3.5171705767105599 3.294083225863536 0.07725580353861515 145 144 153 1.4752503735216076 10 3106 11 3017 34 1910 57 1968
4719 11.699945683112693 1.3922007506059872 11.935778289002974 110 120 121 0.96272143345712879 4 1958 3 1786 1 1794 1 1795 3 1787 19 2542 28 3079
20079 -10.992418247511624 -8.9517082781404707 -5.9296944642618685 129 138 143 1.6271838486434855 58 488 59 1323 60 474 61 2541 64 1522 65 3963
17722 -0.026803134692401535 0.062699219644323761 -0.07476983840430193 49 64 79 1.2520236343240436 57 2217 14 809 25 1803 58 518
14995 -3.0732172645593048 3.3518679814834385 -0.27244913697980411 92 76 80 1.6398077974046681 10 3033 11 3029 57 2175
4722 8.3541254130680347 1.5714022455858387 12.389290013916296 107 112 115 1.7357518206714133 4 1963 3 1795 1 1758 2 1961 19 2552 37 110 20 2126 38 390 21 1663 7 1429
20082 0.037496450080034049 0.96614550639184194 0.12172057469257151 47 51 50 1.0905902315460376 16 1846 63 1828 62 1428 35 7 17 2213 68 349 69 1885
17725 -0.32093532866331104 0.025807501043685906 0.42929548120613875 46 49 49 2.1894939451264261 13 885 57 3369 14 836
14997 -4.0921732303443212 3.5609601448647785 0.0010416610961929173 74 83 98 1.1800484564620111 10 3161 11 3031 34 1924 12 2555 15 2469 13 2330 14 2315
4724 8.3531755150637377 1.6370502986829862 11.821193399933851 75 81 81 1.3330262857382396 4 1986 3 1803 1 1769 4 1971 2 1976 28 3084
20084 -4.537849569341609 -1.2956846648980009 -3.8485684460469312 95 88 92 1.4791161521683442 33 1371 63 1838 64 3550
20085 0.050056781670953725 1.2571626104147153 0.1313236872233956 90 91 85 1.3216359615742022 16 1951 63 1848 62 3422 35 550 35 551
17728 -19.427299584339 1.6005791718509346 -28.711998993792651 180 196 209 0.49845514611046604 11 1633 13 934 14 908
15000 -3.4909307116082475 3.2975847995962586 0.17855496096907247 153 152 160 1.844218192240944 10 3126 11 3045 34 1928 12 2560 57 991
4727 8.964575383289068 1.6557027029723017 11.008390875738062 72 79 85 1.0104858890196213 4 1987 3 1806 1 1797 2 2004 19 2574 28 3140
20087 0.043036304236360221 1.0344270786901486 0.11896003875081622 41 46 40 0.8171499061489752 63 1856 62 1335
17730 -17.858580635202784 1.4776345925472827 -25.28138383137879 137 154 167 1.6265195721866479 11 1651 13 981 13 943 14 933 14 909
15001 -2.7239027279376904 3.462870712805608 -0.58392575432064731 101 99 100 0.93487956960760932 11 3049 12 2589 57 2799 63 4023
4728 9.113761361469793 1.6775120870433982 10.821242934951609 88 96 99 0.61502884665410595 4 1992 3 1810 1 1800 2 2008 19 2582 28 3159
20088 0.12960362677818027 -2.086969246879038 -0.16407005804413402 34 50 50 0.3084588618106105 58 2793 63 1883
15002 -3.272519710865669 3.3103264034231761 0.048179733720926092 62 52 50 1.3381301558628884 10 3105 11 3051 34 1936 10 3094 12 2571 15 2493 13 2362 14 2338
4729 7.6146969418145716 1.7394052277780987 10.857824615482953 116 117 119 0.55482446716579625 4 1991 3 1812 1 1785 2 1994 28 3153
20089 -10.28887139451048 3.8592972059926201 -6.565272745963159 14 21 17 1.7582760848474015 58 1959 63 1907 62 858 57 1708
15005 -0.59259431436331178 2.1096214035671395 0.52872118255238498 178 174 183 0.62220809248099862 10 2770 57 2559
4732 8.0397330772073428 1.8037926934252408 10.183054393144307 101 109 111 1.0709126279613894 4 2013 3 1832 1 1812 2 2021 19 2616 28 3192
20092 -36.391131991829447 -6.2428320869700062 -17.382926355454547 73 84 78 0.8520411728980013 57 3193 63 1931
15010 -3.1842630611996583 3.2838106927130069 0.23575960398368595 112 91 87 1.5214817772557749 10 3134 11 3086 12 2608 13 2375 12 2616 14 2351
4737 7.9922677609799564 1.8852150439021398 9.0367216502379648 76 86 86 0.95076997650431061 4 2032 3 1849 1 1846 2 2043 19 2639 37 125
20097 0.035594591874126988 0.79375400874770963 0.14141186336500991 44 49 46 0.68150990757650243 16 1771 63 1957 62 968
17740 -0.49682105002299576 0.23112113547084687 0.46497671606277396 99 103 106 1.0618545211659456 11 1785 12 1232 14 1146
15011 -3.3936422749060591 3.2787442355435341 0.39621996340376908 159 159 167 1.4002734932266583 10 3179 11 3092 34 1976
4738 1.6466953474561814 2.1287930457627482 9.0852739201117991 130 115 110 0.42027638796538014 5 2256 3 1855 1 1754 2 1978
20098 -29.748294916050128 -3.3677431541375302 -18.735835789224744 174 185 186 0.74252908232766657 33 1856 63 1984
15012 -0.31199861503988757 2.0178487117705517 0.67103768204265024 47 49 64 0.99005397199656608 10 2765 11 3107 34 1893 57 2634
