# 3D point list with one line of data per point:
#   POINT3D_ID, X, Y, Z, R, G, B, ERROR, TRACK[] as (IMAGE_ID, POINT2D_IDX)
# Number of points: 317, mean track length: 9.8986447353179656
21330 -0.88460835207597388 -0.016550189060782948 3.1844013890797371 125 119 105 0.92880399407399872 121 159 99 388 110 217 88 408 77 592 65 707 54 838 43 1188 98 316 97 485 100 180 101 23 96 688
18973 0.026809789355268496 -3.010435390286855 3.7325178341887439 59 61 58 0.11001638824194782 177 150 173 391
16248 -0.44217907379407001 4.6455150226414119 2.1084708339170115 133 135 118 1.562436685092742 146 991 144 959 147 898 143 746 142 735
5975 -0.95816809537166758 0.26266079823822258 2.7182618142870263 143 133 106 1.2319347401736533 128 1192 32 386 123 866 124 871 125 875
21335 -0.62362796573065737 -0.029690091267037325 3.1900318076574186 124 128 130 1.9209940129590601 121 194 129 37 99 399 110 227 88 402 77 574 77 580 65 679 65 682 54 806 54 808 43 1144 178 936
11062 -2.6104351337985712 4.3175753163632509 2.3815360749027468 109 100 88 0.82291662986085912 115 404 48 595 49 594
18978 -0.40792682155126164 -2.7719201477330442 3.7005389840069203 139 127 96 0.51842300121625806 174 501 173 555 79 604 78 573
16260 -0.77762937382842634 4.7914362344172661 2.430280538996048 82 92 92 1.8271637086670145 146 1020 144 987 143 769
21347 -0.071426599748060524 0.13607996281769333 3.1357492024817426 170 172 171 1.7189166582317792 129 175 99 454 110 331
18990 -0.86257927795786649 -1.9364455564364091 3.6364499690489076 0 0 0 2.7376868171072157 174 721 176 530
16264 -0.12623707053210506 4.8263024463007875 2.3120090816521031 160 115 138 1.1953120684238761 146 1032 144 999 147 892 143 772 142 745 141 813 146 1029
21351 -1.4893793910513171 0.21006538493533103 3.1197319378698585 41 45 31 0.96844763540118917 121 189 99 470 110 272 88 519
16265 -0.44353517418304272 4.6980648539914993 2.1139954007492503 168 170 169 0.71317167902670164 146 1030 144 1001 147 930
21352 -1.5715882581829694 0.21768074707820265 3.110184531423525 79 83 80 1.1906376394707692 99 474 110 268 88 527 121 177
11079 -2.647984862364936 5.0607227770712964 2.2694581708576855 72 76 75 1.2392436336558059 115 591 48 792 49 859 51 820 52 785 57 512
18995 0.037533077995197714 -1.7448613194297904 3.505469671027782 61 66 61 1.6227378674413941 75 994 164 528 173 851 74 828 175 732 173 850 172 841 78 1028 171 810 169 757 170 659 170 658 165 506 80 796
16268 0.12299537697767501 4.8745060593928828 2.3021047973170305 84 72 70 0.7427019998257256 146 1041 144 1008 143 780
21355 -1.579462118419485 0.23447763038965563 3.1133026779786364 111 115 114 1.0708327317758577 121 187 99 488 110 279 88 536 77 750
809 1.9126614484314048 3.300642124796989 2.5910089750703764 68 53 27 1.6257796822762283 35 1074 30 1067 3 1037 32 1026 34 996 38 1097 37 1033 36 955 1 969 2 761 39 802 23 794 17 704 21 504 22 604 25 1218 19 731 13 877 29 1362 9 1513 10 1280 12 1015 33 762 14 633 125 1620 126 1680 16 551
11082 -0.48591592375112713 3.8472070703940573 1.9933823213051267 166 167 151 2.3156215637651303 48 809 49 860 114 555 51 785 52 679 113 543 60 651 60 654 50 614 59 582 61 725 112 550
21359 0.44036262557838629 0.22893542215273088 3.1579630904187379 136 130 104 2.2119814536471791 121 393 99 497 110 369 54 784
19002 -0.11434720758228736 -1.3705103506273399 3.4217601435375777 174 167 138 0.77120811630529151 175 783 176 634 173 899 170 697
16274 0.039301198394585839 4.8857513603008966 2.2805755967191654 119 81 105 0.90025935024455639 146 1061 144 1026 147 916 143 794 142 764
6001 -2.8130961186025183 -2.5867021753163248 3.5971190214822126 73 79 74 1.666328965672516 13 136 8 529 29 191 9 371 10 366 11 411 12 267 28 250 128 459 6 218 27 183 28 264 128 460 123 150 123 154 124 137 124 138 125 164 125 167 122 126 122 132 126 265 126 269 127 380 127 381 7 148
21361 -1.5140522991938061 0.2626076866903973 3.1239062119638681 72 71 51 1.5010351273529143 121 223 99 506 88 546 77 755 65 878
11088 0.033749754482055916 3.9104451303797458 2.4766015975924716 80 98 98 1.586495508510027 61 766 48 845 114 535 51 844 52 739 113 536 50 661 55 628 59 663 58 665 108 519 107 531 144 536 146 574 153 732 147 498 143 416 142 380
19004 -0.71891789401540651 -1.2233997656869642 3.4461016453393332 58 61 44 0.05408738762191484 174 866 173 922
16275 0.14391369947208577 4.9123099990364771 2.2959555317623206 136 136 131 0.40177968645786732 146 1063 144 1029
6002 -2.4273206209758662 -1.3518027137510051 3.4388695690173541 56 43 43 1.3669756027024493 32 78 8 803 29 498 26 497 27 504 31 160 5 449 4 266 6 455 28 626 128 774 30 170 15 80 123 486 124 478 125 508 122 433 120 295 126 578 127 687
21362 -0.27020736967166087 0.25017323938784897 3.1430002127767058 134 150 149 1.67831895723463 121 363 99 507 110 358 110 360 99 500 88 488 88 492 77 630 77 631 65 725 65 726 54 846 43 1186
16276 -0.0014459041125139318 4.8966718979290098 2.2950782745699403 82 107 51 0.48932964442759835 146 1067 144 1033 147 921 143 796 142 766
6003 -2.0889296383430982 1.1075752706285946 3.0437503455860044 49 61 6 1.8593949700620271 25 640 27 1159 31 608 5 901 4 639 33 447 6 957 128 1378 21 39 23 136 22 58 29 999 18 257 126 1139 122 946 127 1245 119 566 7 634
21363 -1.5794291675984466 0.25941085963139732 3.1188037715742865 120 126 124 0.97917080045993588 121 208 99 510 110 299 88 552 77 770 65 898
11090 -0.53347555657718027 4.2258515404381969 2.3387339980441904 142 142 118 1.6575082492578022 61 774 48 892 49 969 51 907 48 887 112 615 53 734 53 738 55 745 55 749 109 630
16286 -0.077059775651407494 4.9164662021830106 2.2807619014482143 29 77 122 1.0639049157740248 146 1091 144 1057 142 779
6013 -1.0980763204775634 -3.0845133034695591 3.6168809406387794 109 96 80 1.2359166714778149 128 319 123 15 126 140 127 250
21373 0.34952081378731681 0.33944981754576153 3.058360475075105 93 84 89 1.2605359098032438 129 316 99 543
19016 -0.32370858770422134 -2.1460145255868803 3.5825047569388349 168 168 168 1.6588134117322308 72 205 75 760 173 683 179 435 177 525 175 535 79 820 172 672 78 791 79 825
16290 0.031493564219888089 4.96605009565811 2.287593520629716 80 105 61 1.5251685740027237 146 1100 148 889 144 1064 147 949 143 823 142 783 141 855 140 801 139 745
6017 -1.1869357355057955 -3.0463723898291835 3.6540100768826185 76 95 101 0.56043380907099571 128 323 123 20 124 6 122 8 126 145 127 254
21377 -1.4797665386479089 0.34041704964537473 3.1134031319769959 106 82 65 1.3537878333361426 121 277 99 561 110 352 88 594 88 596 77 802 77 804 65 921 65 922
11104 -0.50324121440817693 4.4585524537488448 2.1922437738751372 135 120 79 1.8306254097990002 61 884 49 1164 114 766 60 914
19020 -0.1805606679893795 -2.1874787224704844 3.5931544109765579 141 150 149 0.75977164717651602 174 612 176 409 164 354 165 350 163 52
21381 -0.22399277404949794 0.38663637563794584 3.0746738199918684 129 123 107 0.8667850176467069 121 435 99 573
18651 -0.93527641543459306 -3.9011321389684972 3.8920717394085806 117 124 117 1.1043111560626506 74 21 174 92 75 148 173 152 79 230 172 165 78 214 171 152 168 169 169 162 170 110 166 97 166 102 80 172 89 211 134 48 76 131 82 97 86 193
23738 -3.1713108468871458 -1.4453254328768819 3.4151817282824939 116 116 104 2.1209943518175702 82 384 84 637 81 548 82 383 84 636 83 488 83 489 83 491 89 794 84 644 91 558 91 560 87 513 93 391 94 307 94 308 96 262 97 189
21390 0.2156307806503773 0.48226252221253241 3.1006847476187702 129 131 130 0.73179958427019653 121 503 99 609 110 478 88 554 77 667
21394 1.6456321538363781 0.62110605344097358 3.1312215606284401 99 104 82 0.29265006589348752 130 209 43 1074 99 633
848 1.810397108584568 3.6077501362572173 2.545918399422284 38 47 48 1.49125766349073 35 1124 30 1130 3 1091 34 1055 38 1141 37 1075 1 1020 2 812 17 792 22 645 25 1262 19 804 13 938 29 1418 11 1347 31 1001 24 900 24 902 21 551 122 1545 126 1741 124 1752 16 590 23 825
11121 -0.43171160203675996 4.3470060369178753 2.2854873864640304 124 119 86 1.4890885544179868 48 1002 49 1102 51 1037 52 960 113 691 112 729 60 867 50 799 53 864 111 713 59 751 58 747 108 636 107 643 106 708 109 710
16317 -0.1565319122905996 5.0309993707300844 2.2687846154566711 47 73 92 0.89220994698143241 146 1150 144 1115 143 870 142 826
6044 -0.13272552556189901 -2.9487091079665171 3.6217051848800552 92 86 60 0.60019215600641018 128 364 123 60 124 44 125 78 122 39 126 181 127 295
21404 1.8840729420684115 0.69020477244728151 3.0780645321288369 128 134 134 1.2927605806656377 129 444 99 663 110 549 88 558 77 640 65 713 54 790 43 1075 167 757 167 755 178 841
11131 -1.9554556383297979 2.6244342038336885 2.682140148322139 158 162 161 2.2204736126547138 48 181 49 70 51 76 52 21 60 53
18674 -0.40417638920672327 -3.7249664492340901 3.8772086853621852 66 68 50 1.3363247514422956 175 72 174 159 168 253
23761 -0.23557373151827446 -3.6712682395225436 3.8548556968089533 130 131 117 0.46209424730323329 86 233 89 241 90 133 85 186
13488 -0.13584602620303812 0.17353110504477612 3.1598643046193242 105 98 91 2.0708525379353828 183 247 70 846 69 689 182 446 181 591 70 848 161 476 72 1365 180 766
16324 -0.1119082272783555 5.0843237462062927 2.2832411372145409 22 58 85 2.0554232440592339 146 1164 144 1128 143 883 146 1163 142 836 141 909
6051 -1.9210327347037019 -2.8436612105422858 3.7736467292375844 165 167 166 1.2378858183686909 123 75 127 304
21411 -1.1994484263322902 0.49788651047655347 3.08742805557634 27 30 37 1.4508258112353436 129 188 99 700 88 675 77 843
19054 -0.80632991404151366 -3.0360286100922487 3.738473394548556 91 87 84 1.5482107979538791 73 101 74 179 75 318 169 345 166 260 80 279 165 113 134 289 145 172
16327 -0.28655942806660717 5.0567288236706744 2.2641016331766743 93 107 92 0.81322712953759113 146 1167 144 1131 143 886 142 844 141 926 139 847
21414 -1.4591010903865178 0.4912423477947056 3.0851669591188209 83 41 18 0.20887023504431107 121 386 99 713 110 473 88 710
11141 -0.59932714202713055 3.0289186282509157 2.6413313445228748 160 164 163 1.6250463594611686 48 287 115 148 49 181 114 85 112 71 60 177 50 130 59 138 58 130 57 53 108 23 107 45 106 124 137 204 136 202 135 138 132 365 133 204
18684 0.019831644469532412 -2.9911988782533538 3.7524133906992923 59 60 60 1.6904672484665224 74 186 177 171 174 350 172 410 89 523 84 403 90 290 86 491 85 417 87 354
23771 -0.93408923256307264 -3.1754929731608761 3.7711840595809174 110 117 123 1.191559102982648 90 210 92 50
3225 4.8593329470206461 -1.2563623961445343 3.392399020711248 58 32 38 1.7040346444903069 3 112 32 93 8 685 29 470 9 369 11 350 8 672 12 114 31 239 5 612 33 67 6 597 28 787
16328 -0.031745149539313691 5.107773614808381 2.2571560921657681 31 94 154 1.9949882071622287 146 1168 144 1133 143 888 142 841 142 843 143 887 140 875
6055 -2.2111940137452795 -2.8024328234176448 3.6344867136650829 78 80 79 0.44806952662736793 128 395 123 84 124 69 125 103 122 71 126 203 127 319
21415 -1.2139606257609725 0.52252958546063277 3.0814692022135124 42 60 65 0.63533792332902905 121 439 99 715
19058 -0.4397051393188034 -2.8108172818972985 3.7031134807361887 106 109 90 1.1925397442811121 75 503 79 574 89 606 84 473 86 527 90 411 85 472
16333 -0.68782565619487346 3.7000006324432313 2.5165720541973826 120 124 123 1.104162651124547 146 428 144 406 157 860 153 693 155 678 154 580 148 471 144 405 147 399 142 285 141 445 140 410 139 378 138 432
6060 -0.23205820666852006 -2.8629111967537613 3.6481221851784702 99 76 51 0.69336607743948664 128 399 123 89 124 74 125 107 126 214 127 325
21420 -1.5614646185515446 0.5125582172745019 3.0800697443925045 121 77 76 1.6430180648133292 121 391 99 739 110 486
19063 -0.71815418749242144 -2.5102587816299962 3.4507326937711231 146 140 104 0.39160150780695746 75 642 79 709 78 673
16339 -0.69371450694440262 4.3046683226303815 2.4020906600817065 143 155 151 1.8171472278448051 153 887 147 710 142 539 141 688 140 646 139 598 138 645 149 487 146 771 137 641 148 748
21426 3.7856339779940571 1.2696707137038128 2.8513418467791283 132 115 97 1.3194110479845531 121 679 99 764
19069 -0.88266670883577902 -2.2791875567743869 3.6119981472428173 117 127 136 1.360333000587266 75 677 79 741 78 695 80 527 79 736
16351 -0.54421053050128698 3.3152199923758667 2.4997702410175195 0 0 0 1.5518909270938295 144 173 146 184 146 179
6078 -2.7848970519898462 -2.6827356303669174 3.6158844634938285 157 159 158 0.82279113008509264 128 431 123 118 124 104 125 140 122 103 126 241 127 353
21438 -1.532074713200178 0.61272767403396522 3.0641315417981487 106 76 62 1.9038516782795136 121 489 99 815 110 570 88 801 88 808 77 1017
19081 -2.1036862063483608 -1.2557485126889774 3.4338291784995634 93 95 94 1.0683482994041154 74 812 75 955 79 1017 78 980
21440 -0.61005966823708446 0.77673131008850316 3.0441537005531645 134 144 123 1.2938187879851593 121 617 99 822 110 643 88 758 100 484 101 281 102 119
11167 -0.20231737011715462 3.4148800982481622 2.5510397068158199 147 149 144 1.53765777469468 115 343 113 297 53 189 58 350 144 299 146 315
21453 -1.5020499186564604 0.69498397052664418 3.0467298446462556 89 95 95 0.65767612609874193 121 565 99 897 110 646 88 860 77 1068
11180 -2.3329343767142912 4.2488522602071237 2.3939511816798711 76 78 77 0.51478353279876288 48 599 49 605 51 594 52 520 60 463 59 407
18723 -0.13132996109089629 -1.2370541071931227 3.4280894483693873 100 113 107 0.58692483370556048 180 313 181 162 172 935
23810 -3.3274994778806541 -1.9518003871710217 3.502855733092427 122 124 119 1.9155631822978958 89 675 90 544 86 547 85 497 92 416 95 204
16370 0.0070343640557036218 3.5341218311583269 2.5511692129818679 127 104 114 0.57465072152122021 113 378 143 310
6097 -2.8641226666007609 -2.5702159110467719 3.5733529925201268 90 93 88 0.64946512457141081 128 466 123 161 124 147 125 171 122 134 126 274 127 387
21457 -0.54533333422504959 1.1087059259246983 2.9898566137119453 94 89 71 0.52616668872045191 99 949 110 726
911 -2.2325879464610043 4.065640762627388 2.4361397677810954 79 61 47 1.4790077379220095 35 1205 30 1250 3 1126 32 1187 34 1150 38 1223 37 1156 36 1105 1 1124 2 904 39 902 23 886 17 923 21 627 25 1337 13 1070 123 1727 124 1729 125 1658 122 1512 120 1419 126 1719 119 1123 118 967 117 574 66 1050 47 777 64 703 46 1213 46 1217 44 1115 44 1116 45 1061 42 1182 42 1186 40 1442 40 1443 41 1321 63 598 62 570 62 573 115 359 61 496 48 548 49 544 51 532 114 344 52 462 52 456 112 339 60 428 50 379 53 419 53 425 111 338 55 406 55 413 111 336 67 1421 59 367 109 323 58 355 57 302
11184 -0.38253387781664527 3.5226003936746144 2.1125362533274301 110 96 61 1.6487243012484114 48 656 49 645 114 413 51 614 52 471 113 410 50 446 59 451 109 376 108 312 107 344 106 426 105 449 104 505
19100 -1.1340232838126971 -4.2320347445790656 3.9391147128516124 145 143 133 1.6854548519549972 79 119 173 17 172 23 78 101 171 27 168 59 80 103 170 18 80 107 81 73 81 76
21460 2.1666941044736521 2.1123917446303002 2.8265155092529217 129 146 68 0.22848968958044716 121 808 99 992
19103 -1.1766329630136638 -4.1574156379563183 3.9280549298220309 89 101 102 1.5896626925926394 173 44 172 45 78 127 171 51 168 72 169 63 170 33 80 117
16388 -0.37393254889810434 3.8784169346035702 2.4198830329580168 148 148 136 1.6597888204728113 148 546 147 482
6115 -2.1673331344364954 -2.492603015425606 3.5622055588987096 64 66 65 0.3310883107045306 128 495 123 187 124 176 125 197 122 159 120 11 126 303 127 414
21475 2.5132026485135635 -0.52698172565750601 3.2683657923636291 92 103 99 1.7968718831420911 130 53 129 201 121 292 130 51 129 195 121 284 110 243 110 246
19118 -0.91728696518785635 -3.7513635649537482 5.5311581084931536 0 0 0 2.7023585744044833 174 188 175 94
21476 -1.1968260353510409 0.21505132001260374 3.1400976750939038 47 44 30 1.6285009875608776 129 41 121 251 99 475 129 38 110 304 88 502 77 676 65 774 54 923
19119 -0.12914739584137058 -3.4461932603872789 3.6565651700325468 175 175 175 0.1916054734674581 174 197 172 270
16399 0.16599569139323792 4.1107527953705514 2.4356223074587082 119 134 127 0.44810649710874806 144 635 146 674 143 498 142 450
6126 -2.700150155492862 -2.3117327019551843 3.5434540781200687 144 128 34 0.66795411243335157 128 532 123 212 124 201 125 229 122 184 120 50 126 332 127 447
21486 0.35180821722771044 0.27244174710722047 3.172701659559642 160 153 136 1.4311752600439818 129 288 99 517 77 617
16400 -0.33021898707468 4.0636989084972228 2.3710799378599865 113 106 80 0.85078834812605142 148 620 147 571
6127 -2.7882925332701602 -2.302664065932273 3.57235470163159 135 119 24 0.67627210201263488 128 531 123 214 124 203 125 230 122 183 120 51 126 333 127 446
21487 -1.5494405389116981 0.41707941592565068 3.1121063643064795 112 119 112 0.010412983095165338 121 322 110 400
16414 -0.21726898657047225 4.220028200108807 2.4133459039077878 119 119 110 0.66337925783746954 144 692 146 732 147 631
6141 -2.4975684080344669 -2.2011995094739882 3.5145542197202588 60 62 17 0.63942678278270204 128 560 123 239 124 229 125 259 122 206 120 77 126 358 127 474
21501 -0.81979600585951617 -0.58736723345173436 3.291273418115801 77 82 82 1.07718603960466 99 89 110 35 88 125 77 295 65 422 54 572 43 921 178 757 167 721
21506 -0.80232537292556672 -0.55689817368623762 3.2846640937928511 75 71 70 1.3982622997822136 99 111 110 44 88 141 77 308 99 108 65 437 54 588 43 940 178 768
11233 -0.44223821777858968 4.1255817949282623 2.2124044507857867 137 134 109 1.85757884884777 48 906 49 989 51 918 52 819 113 616 48 913 112 635 60 766 50 715 50 718 53 719 53 723 55 723 55 729 109 639 58 666 58 668 108 555 108 548 107 570 107 575 106 646 106 651 105 589 105 595
19149 -1.1090090184337165 -2.1976395817239203 3.5879288178320126 119 124 118 1.5615759190008416 72 182 73 437 164 325 179 416 180 45 177 497 74 532 176 401 175 506 174 591 75 689 173 644 79 751 172 637 164 324 176 402 172 638 78 708 171 605 168 603 169 585 170 483 166 463 165 330 82 347
16443 -0.40080688588502889 4.6608665425282449 2.131060277172824 140 141 117 0.20544055841954156 146 992 147 894
21530 -1.0536208293371712 -0.22374901433119751 3.2181056508766459 118 104 94 0.96608154504301424 99 231 110 108 88 299 77 492 65 637 54 781 43 1142 100 130
11257 -2.474072988972047 5.7605507371216742 2.1514912134787134 101 103 102 1.7089582178622547 115 825 49 1163 114 796 55 1000 109 740 108 657
23887 -0.041919082122583218 -3.0268705614212186 3.7447547937006807 110 83 64 0.38037572087284965 84 362 86 439 85 365 91 95 87 316
19173 -0.87166559100902796 -3.0669786150509473 3.7525751403868455 0 0 0 0.63949837974471702 73 82 74 154
16444 -0.038534776673127373 4.8710332227484763 2.2977232745456657 136 123 107 1.8091228604594514 144 1014 146 1051 147 910 143 787 142 760 141 827 140 779 138 749
21531 0.57434583477003032 -0.70281903114566113 3.2881727376867707 140 133 123 1.4520343492750125 110 118 77 312 65 380
11258 -0.4540290860949629 4.4263550471510156 2.1954306357684752 162 158 133 1.7324435497423434 115 791 49 1166 47 1231 51 1100 114 762 52 1023 113 759 49 1169 50 846 53 922 109 758 58 783 108 675 107 681 107 687 108 681 106 737 106 744
16446 -0.017954856919873859 4.879426108348329 2.2972556711119911 127 128 86 1.6529415812954669 144 1020 146 1056 142 763 143 790 141 828 140 780 139 709
6173 -1.1040163224597346 -2.1205379050663571 3.5025613941645757 73 105 101 1.1553727375401353 128 605 123 297 124 288 125 314 120 116 127 527
21533 -0.74624418773239332 -0.2628415294987192 3.2403857792476263 134 104 102 2.0800694602581595 110 138 54 727 99 241 43 1062 178 869
11260 -0.42920043126057267 4.415974329080103 2.1170792552965225 151 145 116 0.57441951143657233 48 1076 114 784 61 914 115 817 113 782
21555 -1.5798737174565258 0.30044173148307635 3.1244118611545013 79 80 77 0.98777997427703257 121 239 110 325 88 575 77 797
16471 -0.43084801993413513 4.3528576002356294 2.1152852585447572 151 150 134 1.7630935404996253 146 854 144 819 147 769 153 931 154 782 152 614 150 550 148 781 155 870 143 625 141 745
6198 -1.0688113687276972 -2.001922982628165 3.5097744315101269 41 67 46 0.46321276960466146 128 653 123 342 124 334 125 364 122 296 120 166 126 456 127 572
21558 -1.4576120401611754 0.30658410286531301 3.1190853053430003 25 52 89 1.7448104614227689 99 538 110 338 88 570 77 775 65 887
11285 -3.2119379134033923 7.364524874018981 1.8343065009515389 113 84 71 1.2457621642236718 115 998 49 1377 51 1289 52 1238 112 961 50 976 53 1190 111 866 55 1159 56 998 109 872 57 835 108 801
23915 -8.929168140334129 -0.46687337452983851 2.8269014557096956 128 131 117 1.9950939314970071 84 550 86 529 90 579 83 444 85 483 86 530 89 682 90 578 85 486 91 531 89 685 87 401 87 402 87 408 92 569 85 488 86 534 89 688 87 412 93 472 94 416 95 393
19201 -0.8587905022208917 -3.1156999069818254 3.7344423129533117 95 89 70 2.0747686301414863 73 57 78 339 73 56 74 132 75 280 74 136 78 335 80 251 74 138
16477 9.3109692620307075e-05 3.3394260707363106 2.5826397757850548 77 47 55 1.7060603567599855 144 294 146 305 119 1071 118 926 117 550 66 1266 47 824 64 854 64 858 44 1066 42 1144 40 1409 41 1289 185 1349 63 670 63 674 41 1291 62 627 62 632 115 330 61 542 61 547 48 517 49 467 114 289 49 464 114 291 51 435 51 437 52 325 113 290 112 299 60 441 50 320 50 325 111 284 111 288 59 365 158 1159 159 1073 159 1079 157 803 153 620 155 627 154 530 154 534 150 402 148 353 139 284 106 357 105 399 104 491
6204 -1.0001585151393924 -1.9785115019333028 3.4703826079892104 126 134 116 0.64489824044467337 128 665 123 351 124 349 125 377 122 305 120 171 126 465 127 581
21564 -1.5339110543615277 0.36288090235311604 3.1069444199724452 77 81 58 0.52120044844944535 121 286 110 364 77 829
11291 -1.9785665260454175 4.3862443460634974 2.3830786187774238 67 73 73 1.2529402517718682 63 703 115 474 49 703 35 1257 30 1291 3 1197 32 1239 34 1205 38 1288 37 1218 36 1167 1 1198 2 973 39 956 23 957 17 964 21 716 22 772 25 1392 19 941 13 1097 12 1213 31 1099 24 982 33 883 15 827 14 792 123 1806 124 1812 125 1740 122 1592 120 1494 119 1188 118 1020 117 628 66 1151 47 891 64 813 46 1353 44 1208 45 1162 42 1280 63 705 62 682 115 475 61 597 48 685 49 701 114 434 51 674 52 596 113 437 113 438 112 438 60 536 60 537 50 498 53 599 111 441 55 549 56 454 56 458 59 485 116 527 109 420 58 454 106 456
19207 -1.3708935772247695 -2.9853021685965317 3.7158620592451519 91 96 94 1.3842645833631602 79 413 172 401 176 177 177 216 175 248 174 346 75 354 173 392 78 390 171 383 169 386 80 295 80 297 89 409 86 335 85 278 87 259
16485 -0.77542963760101624 4.3021448046145219 2.4507554341614752 120 141 144 1.9902378826332252 148 745 147 699
21572 -1.3155162803893825 0.44803689581495099 3.0955068600840856 33 63 87 0.5443118048847817 99 665 110 434 88 662 77 835 65 937
11299 -3.0660009409208637 5.1518142209190252 2.2852252023738617 118 120 119 0.56907024250314509 49 811 52 745
19215 -0.67307046041134255 -4.4439220007453581 3.7455006160008226 98 109 119 0.83245906429109107 172 1 171 4 168 46 169 17 170 6
16488 -0.84754725462838465 4.654679286138597 2.3448661480392534 120 130 131 2.2119699388347152 144 920 147 874 140 824
21575 -1.3580353844023159 0.4810209117736956 3.0833176990050966 55 38 30 0.98659830726767483 99 694 110 467 88 682 77 884 65 978
19218 -0.67409442751757553 -4.4264459935589047 3.7921153141124031 96 95 83 2.0418982194322104 172 3 171 10 168 48 170 10
16493 -0.43909770835958783 3.2618106977226478 2.1652885893282821 121 115 81 1.4877007262536472 146 90 143 61
21580 -1.4618513675285481 0.54085161111253521 3.0708849940850964 121 102 69 1.6829975689447538 121 434 110 523 98 467 100 338
21582 -0.099684313658176427 0.57603745171232623 3.0674627213173338 96 91 67 2.4686649157960514 99 681 110 529
11309 -0.62873697761339686 2.7670925389073138 2.3526894842394066 125 119 85 0.085129655705574431 61 294 114 30
19225 -0.37414297506526439 -3.8629117689774266 3.8975025190423227 56 62 62 0.28832674350468662 79 224 171 166
16496 -0.35515735407652693 3.2263633513336978 2.6035333083380867 127 135 80 0.84604811756865816 146 173 147 203 143 117 142 81 141 243 140 208 139 206
21583 0.20988132864724979 0.59953791961147418 3.0999657614540923 105 116 84 1.5695379633852484 99 669 110 534 88 597 121 555
11310 0.14470431872469805 2.8294964238093612 2.678819665884228 136 129 136 0.94025843981847501 48 238 62 441 114 49 63 490 113 16 112 23 154 354 155 458
23940 -3.0404514592186818 -2.7917511935484765 3.6689860874055102 154 154 156 0.90549428793626074 90 348 91 350 92 261 93 148 94 83 95 83 96 77 96 82
13667 -1.3282741596411096 -1.19098729379239 3.3883406085200405 176 180 179 1.4815497411945735 69 125 70 162 182 49 70 171 69 119 71 167
16501 -0.43573521751010691 3.4202061507118158 2.0680512434371092 137 122 89 1.5015773328281368 146 223 143 178
21588 -0.60230299889476291 0.67775896185140738 2.7801235822433257 0 0 0 2.8294484054094449 121 611 130 116
18858 -1.3344781149443337 -2.3348202952790804 3.6126494463281467 168 169 164 0.22890795732975522 174 578 75 649
23945 -2.4183849581446366 -2.5086186324995947 3.5824219957059866 137 135 136 1.7244092104048079 86 435 87 325 94 103 95 105 96 86
13672 -0.84311735915128794 -1.1310447834118207 3.3877580762156643 96 105 52 1.2940926687142138 70 209 182 59 69 147 71 204 181 207 161 55 162 135 72 678 180 347 73 865 164 686 164 693 179 731 177 878 177 885 74 920 176 711 175 855 174 928 75 1075 173 980 165 643
19231 -0.2501611009859091 -3.0742916590194982 3.7623779231503516 0 0 0 2.0876630991363792 78 366 175 174 177 92 177 87 164 46 171 338
21589 -1.4531938704681504 0.64642431758932795 3.0571128028435841 85 89 82 0.31550122148630283 99 842 110 597 88 814
19232 -0.294103366178118 -3.0549441348553019 3.7528995475589926 0 0 0 0.34784383054247803 172 356 177 111 179 74
21591 -1.471998375670202 0.65599054307691418 3.0482267561226197 50 54 55 1.0095735861484292 99 857 110 609 88 829 77 1040
11318 -1.1296130732861756 3.1087593297638643 2.6154975903639879 120 109 113 1.609637953717483 48 290 114 88 51 206 52 131 113 78 112 80 60 162 60 164 50 137 53 48 55 77 56 46 109 63 59 137 58 139 57 96 106 139 105 188 104 290 103 486 102 705
18861 -1.2110469816164113 -2.0679572938103719 3.5673709500526471 85 95 70 1.8406866612464754 73 502 74 579 78 742 166 512 80 574 165 379
23948 -2.6284201452337568 -2.1154144287735535 3.5013106195857753 0 0 0 1.5465235205968795 84 547 90 541
13675 -0.30526505573137036 -1.0857993168564277 3.3863519619973679 173 175 174 1.3887277939682143 70 238 182 63 71 237 182 60 181 217 162 168 72 732 180 374 73 919 164 710 179 765 177 922 74 972 176 749 175 906 174 977 165 652 163 314 163 319
16508 0.23829267462948436 3.3224506553547282 2.5868140384111826 45 46 41 2.0480933439688012 143 248 142 212 141 342
21595 -1.5897027197080287 0.70388317766845676 3.026371198058857 138 140 139 1.5182438305487065 99 913 110 651 88 886
19238 -1.0556379266754066 -2.951742108757943 3.7337925562643575 0 0 0 1.7789066321388343 78 415 174 370 166 280 73 158
21599 0.30134997950479092 0.9777839516607526 2.9466883424672305 92 89 74 0.3209052437099198 99 859 110 671
11326 -0.027168065121348669 3.1357331446738281 2.6377008241922315 55 44 42 0.9943863376996136 49 300 114 187 51 290 52 179 113 173 112 183 60 309 59 248
23956 -0.090749567119214641 -2.2444076945914486 3.5973215856715086 191 191 191 0.88519357396166864 90 692 91 488 92 281
21604 -0.95789625095402664 1.2307766873958768 2.8434012029476583 0 0 0 1.5118437079218872 99 1047 121 769
16520 -0.44981965379601019 3.9211832321459537 2.1217040649309156 109 99 72 0.70731028009580366 144 525 146 557 143 410
6247 -2.1110900060253854 -1.3820447199387953 3.4041670040680652 94 96 95 0.43097039383635383 128 772 123 482 124 474 125 503 122 429 120 290 126 574 127 683
21607 0.10043425012851553 1.7062431284745081 2.8563235366945889 0 0 0 1.0518278700820252 121 833 130 364
21617 -0.42346252621788738 1.4976519476316859 2.912769466971163 107 129 119 1.5739683757134724 129 598 99 1058 132 41 130 336 131 198 129 596 121 806 99 1056 110 820 88 974 103 145 110 824 101 611 102 413 100 779
1071 2.3990518075230045 5.6753538501265313 2.1330163519718175 69 79 71 1.0364143970313127 35 1422 30 1418 3 1439 32 1444 34 1398 38 1554 37 1472 36 1424 1 1450 2 1214 39 1154 23 1135 17 1151 21 986 19 1254 13 1276 24 1141 18 1124 16 774
18887 -2.3015600156161526 -0.86076416017343782 3.3023920718930135 97 100 99 1.7019825097185353 68 13 70 312 71 273 72 682 75 1036 68 16 70 313 69 246 71 277 72 686 73 842 74 889
23974 -3.0519564382606599 -1.5211565174276023 3.4092327573131689 131 124 105 1.1158395936049166 86 670 89 790 91 546 87 512
19260 -0.34948149036639026 -1.8847836199762886 3.5352903784645577 66 71 65 1.3090714628709739 78 924 173 820 168 745 169 729 80 714 81 640
16531 -0.46046903985957666 4.1666142615730992 2.194023947759153 146 134 108 1.0824708982036404 141 664 140 625 139 578
21618 0.50529083595779534 1.9926355145107424 2.8216701302166429 109 113 84 1.6280253641112332 121 866 110 849 129 670 121 868 99 1090 88 985 129 668
16536 -0.17641715094288823 4.3401048871167323 2.3848260637439442 81 72 65 0.55367677467196652 144 763 146 807 143 589 142 553
21623 14.859650815166045 3.9909974187088038 2.119100629886185 33 41 36 1.8858640695868718 129 627 130 475 121 750 110 716 129 632 130 477 121 754
1077 2.1908635378052956 5.757803993687836 2.1046270593526115 42 43 48 1.649005343143622 35 1442 30 1436 32 1464 34 1411 38 1566 37 1483 36 1439 1 1469 2 1234 39 1162 23 1147 17 1176 21 995 22 1010 19 1268 13 1292 24 1162 18 1132 20 918 15 945
11350 -0.01631367639624089 3.8371768401909105 2.4986182382230511 93 101 60 1.8784733760242776 48 776 114 479 60 673 58 598 147 460 146 529 143 391
16540 -0.42363526091124581 4.3707104859572663 2.0750718096972789 145 143 127 0.49101614674201194 146 870 143 635
21627 1.8851658957592015 -0.41753668072545452 3.3033410147662332 98 113 99 1.7144178682931719 99 364 110 242 130 36 129 180 121 276 88 335 88 340 77 426 77 431 65 462 54 534 65 465
11354 -0.45302646047608847 3.7564191279348553 2.0169827292765614 143 146 129 1.5611275708642776 48 763 49 781 51 731 52 608 113 501 112 504 60 626 50 558 111 526 59 550 58 519 53 474
16542 -0.42158892762769795 4.4205124514905343 2.1092876895934274 155 157 144 0.96985100503792288 146 888 143 651 142 623
21629 0.17000489282453551 2.1085996750218383 2.8154807318907196 116 133 109 2.4156964927139852 130 489 129 723 121 914 99 1149 110 895 132 210 133 74 131 357 130 481 129 718 121 910 99 1148 110 893
1083 2.1649129210745279 5.8795744655553257 2.1031516863599466 91 87 74 0.96769847024675038 35 1456 30 1455 32 1489 34 1442 38 1591 37 1507 36 1459 1 1495 2 1253 39 1185 17 1196 21 1016 19 1291 24 1178
11356 -0.43529259907266282 3.7930955537599966 2.0510315339601166 135 138 127 1.4429051068401193 49 805 114 517 51 746 52 628 50 570 53 505 58 532
19272 -0.42791922744584299 -4.0498405077996118 3.9233281475633341 100 102 101 1.4162850012057151 174 21 75 67 173 78 79 152 172 82 78 133 171 94 174 18 75 61 79 148 168 127 169 104 170 61 166 68 166 70
16548 0.46729370062590758 4.7572272990612463 2.3247455626224327 180 182 181 0.37618799318717677 146 955 143 709 140 679
21635 4.2292869926946723 -3.0752933864663707 4.0493408397420456 123 126 125 2.0476250262526783 88 14 54 189
11362 -2.2830792740003285 5.0518179222901809 2.2653755721259854 0 0 0 1.5464909902755715 61 692 62 787 63 810 116 609
23992 -1.9371072053981264 -1.3752384036793566 3.4348862937822386 85 83 71 2.2070660121486179 83 587 90 724 91 661 92 607 93 427 96 250 97 133
16579 -0.25775674235843665 3.8752858719074332 2.4117222892423467 104 99 67 0.11074872628197274 147 483 143 394
6306 -0.73774504363674687 -0.96098815970107887 3.2562727559542455 163 151 117 1.6589435560231252 128 922 123 620 125 642 125 644 124 621 124 622 120 430 122 552 126 722 127 820
21666 1.1499947702696336 -1.0802701922060232 3.39057006875306 174 176 173 0.67340137529179067 99 120 65 324 88 118 54 439 43 705
19309 0.19748011423874848 -1.8944404914387412 3.5325570960318373 168 168 165 1.3104543963020208 171 786 179 579 179 583 168 738 166 592 170 633 166 595 165 480
16580 -0.51147233578828544 3.8878188854866029 2.0428521563225495 113 103 73 1.3690604340186745 144 507 143 395
6307 0.0062494751602862175 -0.95146866431046417 3.3282848696756537 117 118 113 1.2456111530623395 128 927 123 626 124 626 125 651 122 558 120 435 127 822
21667 -0.46145026863101629 -0.66859929013770159 3.4468365446583453 122 108 108 2.0483852637941702 99 100 88 120
19310 -1.0543032571367739 -1.8595211074702829 3.5198437725272949 136 119 106 1.0896034605902842 176 564 168 760
16581 -0.15025676707930852 4.0070120549051103 2.6014586532901127 110 103 75 0.33961711960116431 148 548 143 435
6308 -0.86230878878674366 -0.87448526186156994 3.2781114849426993 134 119 86 2.1159429994097936 128 929 123 628 124 630 125 654 122 561 122 562 120 442 126 729 127 823 27 664 32 221 26 630 119 130
21668 1.8403908982496557 -1.2234729279281606 3.4197895645520187 114 119 112 0.99744683687955005 99 132 88 126 65 315 54 400 43 651 178 486 145 644 134 682 76 776
16586 -0.18441519130740205 3.0264768459932219 2.6465539224047845 112 113 107 0.13986686464492337 143 38 142 11
21673 -0.71209140477937183 -0.55378682602311791 3.2834136474342182 88 92 99 0.85949742817060493 99 115 88 144 77 315 65 440 54 587 43 929 178 758 167 719
19316 -1.0180245046177034 -2.9540331367035066 3.7293798113307615 62 64 54 1.5267162041744209 164 52 177 240 177 235 175 272 173 418 168 400
21676 -1.0213493013903499 -0.44834620979292089 3.2652428503813438 92 114 95 0.78805434220831605 99 119 88 160 77 357 65 498 54 668 43 1033 178 846
16594 -0.48487992210783665 3.3494924287404308 2.6123741820284629 0 0 0 0.46881677808019229 144 231 147 279
21681 -0.87890467100942149 -0.38335681985252712 3.2550266293148975 71 101 99 0.46984807543830914 99 165 88 203 65 527 54 688
24038 -0.39582250597621538 -2.909689682624403 3.7202930736306321 110 125 128 2.4970070198121057 86 473 145 286 87 341 167 88
13765 -1.0335380797975779 1.995976135938992 2.791258007065974 140 134 102 1.714415532960575 183 1027 184 954 182 1071
19324 -1.2031907466752545 -4.1036425539423487 3.9417819036564787 83 95 94 1.5041658105398052 168 85 169 74 80 126
21682 -0.82253996965912535 -0.37587259343382362 3.2474940366133649 101 79 82 1.1950002183639008 99 182 88 216 77 417 65 531 54 687 43 1038 178 843
19325 -0.29634115251208365 -3.8228609415771651 3.8345143221850004 38 54 53 3.2455484255319735 173 183 169 204
21683 2.0268000603585059 -0.79964822678831327 3.348016335863488 109 118 99 1.4522622243666612 99 249 121 190 88 225 77 321 65 371 54 485 43 764 178 570 178 572 134 732 76 849
19326 -1.1230184679743631 -3.6490364322377613 3.7120991597925208 169 171 168 0.99031071417228744 171 239 169 252 170 190
21684 6.2245942431754031 -1.4668040428348519 3.1912480471116722 80 65 72 1.1049301962509128 130 90 88 229
19327 -1.2143881999141051 -3.6315631975511424 3.7951841689050481 168 170 169 1.0462078630726612 172 256 169 255
21685 -0.83925332300086375 -0.34170429132982588 3.2452091529309519 75 87 96 0.86378384857711143 99 195 88 237 77 434 65 548 43 1047
19328 -0.080294301092425427 -3.1493591302836408 3.7667986586916808 164 144 133 1.3384782915473143 75 259 169 304 89 375 91 68 87 263
21695 0.75814318507851242 -0.47279888698442157 3.2743342781875033 148 144 129 1.3000568307060039 99 279 88 279 77 404
16609 -0.53047054337845467 3.6576060694437125 2.5152893106302643 132 136 135 1.9449048622822058 144 400 142 281 140 393
6336 -0.99971401295317042 -0.35319991532257033 3.2533670152172141 112 125 105 0.87012774175097929 128 1004 123 695 124 697 123 696 125 711 122 622 126 796 127 897
21696 1.4906095222959108 -0.5476747032260324 3.3037524164046199 114 111 80 2.0851601498660735 99 299 88 282 77 387 65 426
19339 -0.065605569536484387 -2.9717782275034255 3.7342943361819807 89 69 58 1.6204877751677866 73 79 164 135 179 139 177 195 176 175 174 365 173 420 172 428 169 399 168 399 171 416 80 313 81 237 84 406 89 535 86 489 85 420 91 117 87 353
16616 -0.00047221249995844846 3.8399966337218259 2.4711536049960672 112 128 115 0.83856449798809807 143 392 146 531 142 355
6343 -0.83889951065214452 -0.46636965235651895 2.8056104914089519 111 108 89 1.4589106321444274 128 1020 123 706 124 704 122 626 120 523 126 817 127 914
21703 -0.014928957984743125 -0.26598292282544667 3.241060899270062 119 110 109 1.2586021613219576 121 170 88 333 77 468 65 545 54 666 43 980 178 784 167 722
19346 -0.74654663991274572 -4.5390331784735656 3.9755462035813443 100 102 91 0.34161722718669874 169 10 170 3
16619 -0.49569024257217936 3.8954726237612021 1.9746880552759374 0 0 0 1.9742329235691523 143 400 146 543
21706 0.011855314607949356 -0.23229891102637207 3.2319312225544365 99 104 72 1.5198709346627111 121 186 129 52 88 350 77 477 65 557 54 673 43 984 178 793 167 731
24063 -2.3803700450965168 -2.0158330054270213 3.5322251233377822 0 0 0 0.66138048460413557 89 734 90 571
19349 -0.36697816608636613 -3.9964734088950786 3.9670137925580855 0 0 0 2.8160196861510856 169 126 173 99
16621 0.07455229022487278 3.8966809174648565 2.536888137495537 95 99 84 1.4214655618662473 146 562 142 376
6348 -0.79648950254934514 -0.2720766178510115 3.2625742150071395 121 94 99 0.89015146091500652 128 1024 123 718 124 715 125 728 122 637 120 535 126 819 127 915 119 254
21708 -0.79591891622991184 -0.15756745619257942 3.205668222757815 67 96 128 1.6477402500177529 121 101 88 356 77 519 65 649 54 777 43 1125 178 924
21710 -0.71136034735365927 -0.15550183793340697 3.2131153861592008 69 54 57 0.87030303574006651 99 323 88 361 65 642 54 768
16639 -0.90585104669048033 4.2897580277480234 2.4125887207185612 143 144 139 1.6659433872987985 144 717 142 528 141 697
6366 0.16622839288270647 -0.17887862401075841 3.2281165767646756 93 95 84 0.5642976633597786 128 1053 123 753 124 750 125 755 122 666 120 565 126 849 127 942 119 278
21726 -0.23444260541864967 0.14232935005383016 3.1644532186459471 117 136 108 0.61770676827985393 99 450 88 452 77 611 65 709 54 824 43 1151
24083 -2.6432863010994598 -2.8131851634127387 3.6637262522261524 152 152 152 0.79484107929907566 91 345 92 254 93 134 94 64
3537 -3.1483513847576701 -1.649881744600519 3.3979731862625875 57 50 3 2.0501013895095839 8 727 29 404 26 346 31 81 6 410 28 535
13810 -0.89770840135332342 -1.4048538173595866 3.4485650689865501 129 134 114 2.1922755152443334 70 14 71 82 72 565 164 574 174 828 163 206 162 36
19369 -0.079928884107628273 -2.2306148452634544 3.5671409797773546 98 102 101 0.93873830178645379 169 582 172 644 170 485
16658 -0.40226868216921269 4.4996100927953089 2.0825110198890573 144 135 118 0.12704632757216339 146 921 142 664
6385 -2.5077217469293744 0.33896708643245294 3.1450057917836176 43 84 86 1.6753867178504285 128 1111 123 801 124 799 125 802 122 708 120 605 127 986 126 887
21745 -1.5341692480158211 0.4170692057108093 3.1015707498932055 115 113 68 0.74730869339881423 99 646 88 666 77 882 65 1001
19388 -0.16058950809640998 -1.2975654176198106 3.4186142130593526 145 143 122 1.2312224099652582 75 1094 172 910 164 606 170 712 166 658 74 932 165 555
16663 -0.11582460999400818 4.7441845594180823 2.3322840572319228 174 160 166 1.6666159449280566 143 727 142 704 141 788 140 733
6390 0.36070747333422426 0.11442070344073217 3.1397153269317584 41 55 58 0.79393975301897624 128 1112 123 813 124 810 125 811 120 620 126 899 119 341
21750 -0.38939995982062109 0.81427313301455684 2.9981981383786982 87 83 74 1.3553931290707366 99 828 88 751
19393 -0.10290667307826064 -1.7976787458055123 3.5328657358426669 74 80 80 2.0639325034661926 168 767 171 800 175 718 173 842 170 650 165 497 80 765 163 178
15556 -2.8246100322465346 5.0294258282378195 2.2499572324456421 98 102 105 1.5755959973055045 109 518 107 445 111 528 106 513
20643 -1.2571168150957714 4.0796409588677163 2.2987705192407506 122 125 114 2.1744323056334873 107 375 104 468 103 634
16665 -0.39249745439448613 4.6374354549122385 2.1446752420425765 151 140 113 1.0801888709058836 144 932 142 719 143 721
6392 -1.5877720115140583 0.28613350055448256 3.1226832006666894 142 130 121 1.9652446020522736 128 1122 123 815 124 808 125 810 120 614 123 805 124 802 126 903 127 996 118 6
21752 -1.3361058342917502 0.60706829996208767 3.0658536699281482 84 69 41 0.36090747298275222 121 501 88 768 77 954
19395 -0.91570711755286494 -3.1778969813886029 3.7574954381456696 58 67 79 2.4202504777742755 78 314 169 288 79 341 175 126 171 285
16667 -0.95120228364995851 4.7103155966190169 2.3234215771495372 131 133 132 2.1265000673258121 143 756 142 746 139 841
21754 -1.5751041189788522 0.56552853930625324 3.0891779752227033 122 99 92 0.20181999234214101 99 778 88 779 77 1000
19397 -1.2402205789477885 -2.8371507641170202 3.6930015656988018 73 76 78 1.4200083530790146 168 488 169 470 164 115 179 278 177 342 174 453 175 362 172 503 173 503 170 380
15559 -0.46204406743258475 4.0941300824286513 2.2588261113278012 152 155 146 1.2229968513526686 109 610 107 542 106 625 105 570
5286 -1.7771509483497032 1.553576762203571 2.8004886960127657 97 119 82 2.1882467568700985 21 141 18 345 16 362 15 513
20646 -0.43522464573726266 3.5889883137656828 2.1042633274404356 0 0 0 0.61331865117619844 106 453 107 351 108 322
21755 -1.5742984236266981 0.5715814710585535 3.0862852397911928 101 66 47 1.2172187307039601 99 780 88 786 77 1002 88 782
15563 0.16440626619594925 4.0616706688484054 2.4598905224427106 127 138 132 1.5452712882964483 109 720 107 659 106 740
5290 1.2924298052292649 2.0029061271617041 2.7982366183972092 144 154 155 2.0781094609274513 19 401 18 388 20 290 15 519 16 377 7 766
20650 -8.376542230579199 10.69434915338309 0.98120199130018471 15 20 16 0.64035609535360261 106 774 107 747 103 661
21759 -1.5948449006175751 0.65181600052885857 3.0655669365976221 137 121 107 0.78905031033844975 99 870 88 842 77 1067
20652 -1.002543949959827 1.7891066967149623 2.8565486244611513 146 109 116 1.5214511068787904 152 0 132 85 154 69 131 235 104 48 118 544 66 755 64 372 47 229 46 579 44 548 45 464 42 645 40 882 41 775 185 848 184 865 63 86 62 51 67 1043 183 934 158 694 68 908 70 1425 69 1233 182 1003 161 982 157 429 153 2 155 204 130 413 129 720 121 946 103 232 101 626 102 463 100 765
21761 25.105711701842061 9.3215293679460043 1.5812533403075328 51 56 49 1.6157188450257081 99 983 121 856 129 742 88 854 110 811 77 831 110 806 77 828
15569 -0.46924902872908886 4.1346210590803336 2.1870218668333847 162 166 161 1.7800500264268488 56 616 109 637 108 558 107 571 109 643 108 564 106 649 105 587
5296 1.8266781456952792 2.1853663881849017 2.8181940952770805 86 95 100 2.2889774703467012 31 816 33 635 14 461 5 1154
20656 -0.99895264512193582 4.067502770058212 2.4367522720534049 165 170 175 1.844608301973079 107 385 106 489 105 454 104 486 107 382 106 484 103 654 104 483
16678 -0.021874992467641661 5.1609748682190588 2.2609297195220881 72 120 164 0.14750344934583262 143 910 142 867 141 923
21765 -1.5856309465240657 0.69075244407934411 3.0435524687981981 110 112 111 0.19990780910452643 99 903 88 876 77 1099
20667 1.6565713945076204 0.10778215417073772 3.1844797555103148 98 122 127 0.50602298175668903 99 467 88 439 77 561 65 605 54 680 43 958
16689 0.023844358901024838 3.8102576982478031 2.5009816493594696 61 77 77 1.9895571806290544 144 497 147 445 143 387 142 344 146 524 148 486 144 498 147 446
6416 -2.4161646884004799 0.55484749478043904 3.0716825663511687 73 89 53 1.6570284368262129 128 1185 123 867 122 773 120 672 120 677 126 959 127 1060 119 400 119 405
21776 -0.12903506620115174 1.8255283962466056 2.8581441807160042 162 169 158 0.061881434670467028 121 872 88 1027
19419 -0.32477764462337705 -2.8191376561641812 3.7036698890361182 130 105 74 1.4798815636023492 164 222 169 485 166 362 165 249 145 350 134 419 76 528 82 241 81 317 79 576 84 485 89 624 83 364 90 416 85 487 85 494 91 244 87 410 86 551
20671 0.56944142968523859 0.51395355478218485 3.1107785858365804 116 109 83 1.3514691748139016 131 19 129 364 131 21 121 516 77 649
16693 -0.24399773642241046 4.9513809793132504 2.2913874019349771 108 64 87 1.588537223745774 63 1183 61 1042 114 919 49 1360 51 1270 52 1204 113 902 112 933 53 1138 55 1166 56 1017 146 1109 144 1072 143 831 142 792 153 1039 148 921 140 848 139 793 138 823
6420 -2.8158098709206629 0.61388427566455606 3.079020207258238 43 89 96 1.0398659203700007 128 1190 123 878 124 883 125 878 122 777 120 686 127 1070 126 962
21780 4.3078731130341108 -1.2363267098176118 3.4245754626571925 123 129 113 2.0151363340309163 129 163 121 233 99 256 110 197 88 206 88 207 99 250 110 193 77 285 65 339 54 432 129 157 43 658 178 473
20673 -0.28021378239760769 0.77271543949358268 3.0725635722438756 163 169 167 0.020283581570896707 131 7 130 165
16695 -0.44991914823173312 4.2334704077057728 2.2743069720515638 117 119 112 2.0455822123358218 146 748 144 706 147 680 143 544 143 547 148 737 148 739 146 753 144 712 147 684 143 550 142 519 141 675 140 626 139 579 138 618 142 516
21782 0.76441646802708862 -0.49083995850050732 3.2769141477554831 131 123 114 1.7920355790006823 129 60 99 267 88 267 129 65 121 174 99 273 110 182 88 272 77 396 77 398 65 453 65 455 54 541 54 545 43 854 178 683 178 687 167 667 167 668 145 783 145 786 156 709 156 714
19425 -0.8648028957263223 -2.0048404911220317 3.5808361028094113 63 75 74 1.7092991344356776 169 674 175 615 166 541 165 412
20677 1.9449459421038227 0.21024529604768777 3.1551193083684113 108 123 116 2.0660998105772932 131 49 129 352 129 354 121 456 99 494 88 453 77 577 43 966 54 693
16699 0.28190649516144983 3.297532285267275 2.5925259408168011 28 31 25 1.8964290515594726 146 314 143 241 142 200 144 304 141 338 140 285
6426 -2.9029522049653123 0.63199178976429504 2.9924421636548102 36 82 92 1.2061937605683857 128 1209 123 888 124 897 125 891 126 977
21786 2.8330480875473696 0.64795771082784626 3.0801071580780652 126 127 125 1.3859501306953743 110 528 130 257 132 57 130 259 129 457 121 605 99 619 110 531 88 528 77 620 65 669 54 731 43 1012 178 771 167 705 156 763
15607 -0.32607889065762463 -2.0773515937730322 3.567499219707245 134 144 141 0.62223461651704337 72 263 180 96 73 542 179 475 74 634
5334 -3.0547297914322535 5.0951646158746566 2.2470477898066892 0 0 0 0.75680192876222441 17 1073 19 1090
20694 1.6615444181635701 0.58291339361948735 3.0961830783308981 126 135 114 0.60465151386268701 131 105 130 206 129 415 121 581 99 618 110 514 88 540 77 633 65 706 54 778 43 1067 178 839 167 754
10421 -2.1794393540007575 3.3284432211217427 2.5903428755746734 121 88 68 0.45653388472288531 40 1216 185 1172 184 1139
21803 -1.5709457643056406 0.27701973978833228 3.1261290801704118 130 112 105 1.5358347421561067 110 312 121 221 88 564 65 907
16717 -0.79255247365040848 4.7207240534887394 2.3297451931015929 123 132 133 1.0755945776799978 146 1005 144 975 143 752 142 741 146 1002 147 913
21804 -1.2890222905872657 0.40311425431407755 3.1832838486104533 42 64 89 0.96080847934684388 99 597 65 881
19447 -0.4352613754331664 -3.9686839947890564 3.9093925927516486 39 41 40 0.4725378886353277 168 163 170 87 78 158 174 50 171 122 172 120
15609 -1.017345956473936 -2.0868409891659967 3.5694021960423847 104 140 152 1.7731167529295979 72 271 164 371 180 114 179 467 177 553 175 560 180 101 174 640 174 645 173 693 172 689 171 646 168 652 169 629 166 508 165 376
20696 -1.2729700284369416 1.1521417696089673 2.9768412938970812 162 166 165 1.4134374586541634 131 15 130 211 129 510 121 740 88 998
10423 -0.53420083011381303 3.145409426221466 2.6055287166892582 137 126 91 1.0995854168917916 40 1285 41 1164 185 1238 184 1209 158 1090
16718 -0.39735030126392723 3.3697391625672055 2.1504612753664483 134 116 79 0.63525840271231426 147 287 142 173
21805 -0.30179982072939349 0.92811175825636649 3.0180321736270312 140 133 171 1.5614430204783369 99 881 129 461 130 205 102 179 102 182
19448 -0.11887346179866821 -1.7911817486085386 3.5225297181741078 56 61 61 2.3897564484510192 72 470 74 786 73 698 74 790 172 835 79 1012 173 844 175 722 81 690
15612 -0.34542624399923177 -2.0660905511759964 3.562935994668432 111 115 114 1.490504608611708 72 273 180 105 73 551 164 411 179 484 177 573 74 645 176 472 175 593 175 591 174 675 174 673 75 803 173 728 79 866 172 719 78 831 171 684 168 657 169 648 170 543 166 520 166 513 80 640 165 398 163 96 163 98 81 565 82 439
